ncols         405
nrows         39
xllcorner     201810
yllcorner     160805
cellsize      5
NODATA_value  -9999
-9999 -9999 -9999 -9999 -9999 -9999 -9999 -9999 -9999 -9999 -9999 -9999 -9999 -9999 -9999 -9999 -9999 -9999 -9999 -9999 -9999 -9999 -9999 -9999 -9999 -9999 -9999 -9999 -9999 -9999 -9999 -9999 -9999 -9999 -9999 -9999 -9999 -9999 -9999 -9999 -9999 -9999 -9999 -9999 -9999 -9999 -9999 -9999 -9999 -9999 -9999 -9999 -9999 -9999 -9999 -9999 -9999 -9999 -9999 -9999 -9999 -9999 -9999 -9999 -9999 -9999 -9999 -9999 -9999 -9999 -9999 -9999 -9999 -9999 -9999 -9999 -9999 -9999 -9999 -9999 -9999 -9999 -9999 -9999 -9999 -9999 -9999 -9999 -9999 -9999 -9999 -9999 -9999 -9999 -9999 -9999 -9999 -9999 101.21 101.22 101.19 101.05 100.84 100.55 100.31 100.26 100.13 100.16 100.16 100.09 99.94 99.72 99.52 99.36 99.2 98.48 98.38 98.31 98.2 98.1 98.39 98.25 98.06 97.88 97.69 97.58 97.38 97.26 97.06 96.93 96.74 96.7 96.6 96.39 96.26 96.14 95.94 95.63499 95.57 95.59 95.44 95.27 95.14 94.99 94.93 94.85 94.69 94.55 94.43 94.3 94.16 94.05 93.93 93.82 93.71 93.6 93.53 93.45 93.39 93.27 93.19 93.02 92.95 92.82 92.72 92.63 92.52 92.46 92.33 92.22 92.13 92.03 91.94 91.83 91.79 91.69 91.59 91.46 91.42 91.28 91.2 91.14 91 90.92 90.88 90.77 90.74 90.68 90.62 90.58 90.47 90.31 90.22 90.25 90.08 89.95 89.97 89.85 89.7 89.57 89.47 89.36 89.26 89.17 89.07 88.97 88.87 88.78 88.65 88.5 88.36 88.28 88.14 88.04 87.87 87.74 87.56 87.44 87.36 87.22 87.18 87.17 87.09 86.99 86.96 86.94 86.86 86.77 86.71 86.59 86.52 86.46 86.36 86.26 86.16 86.1 86.04 85.98 85.95 85.86 85.82 85.76 85.7 85.66 85.61 85.59 85.51 85.48 85.42 85.35 85.25 85.14 84.99 84.86 84.71 84.52 84.36 84.19 84.06 83.9 83.64 83.55 83.4 83.21 83.08 82.88 82.78 82.75 82.78 82.85 82.92 82.97 83.04 83.14 83.25 83.4 83.54 83.74 83.97 84.26 84.51 84.82 85.14 85.54 85.91 86.34 86.72 87.15 87.55 87.95 88.28 88.62 88.86 89.12 89.33 89.51 89.62 89.77 89.91 89.99 90.05 90.11 90.2 90.19 90.23 -9999 -9999 -9999 -9999 -9999 -9999 -9999 -9999 -9999 -9999 -9999 -9999 -9999 -9999 -9999 -9999 -9999 -9999 -9999 -9999 -9999 -9999 -9999 -9999 -9999 -9999 -9999 -9999 -9999 -9999 -9999 -9999 -9999 -9999 -9999 -9999 -9999 -9999 -9999 -9999 -9999 -9999 -9999 -9999 -9999 -9999 -9999 -9999 -9999 -9999 -9999 -9999 -9999 -9999 -9999 -9999 -9999 -9999 -9999 -9999 -9999 -9999 -9999 -9999 -9999 -9999 -9999 -9999 -9999 -9999 -9999 -9999 -9999 -9999 -9999 -9999 -9999 -9999 -9999 -9999 -9999 -9999 -9999 -9999 -9999 -9999 -9999 -9999 -9999 -9999 -9999 -9999 -9999 -9999 -9999 -9999 -9999 -9999 -9999 -9999
-9999 -9999 -9999 -9999 -9999 -9999 -9999 -9999 -9999 -9999 -9999 -9999 -9999 -9999 -9999 -9999 -9999 -9999 -9999 -9999 -9999 -9999 -9999 -9999 -9999 -9999 -9999 -9999 -9999 -9999 -9999 -9999 -9999 -9999 -9999 -9999 -9999 -9999 -9999 -9999 -9999 -9999 -9999 -9999 -9999 -9999 -9999 -9999 -9999 -9999 -9999 -9999 -9999 -9999 -9999 -9999 -9999 -9999 -9999 -9999 -9999 -9999 -9999 -9999 -9999 -9999 -9999 -9999 -9999 -9999 -9999 -9999 -9999 -9999 -9999 -9999 -9999 -9999 -9999 -9999 -9999 -9999 -9999 -9999 -9999 -9999 -9999 -9999 -9999 -9999 -9999 -9999 -9999 -9999 -9999 -9999 -9999 -9999 101.24 101.21 101.14 101.01 100.75 100.45 100.35 100.29 100.33 100.3 100.25 100.09 99.93 99.81 99.68 99.48 99.29 99.07 98.9 98.67 98.13 98.03 97.95 97.79 97.66 97.9 97.77 97.58 97.4 97.18 97.01 96.8 96.74 96.58 96.5 96.33 96.19 96.1 95.84 95.72501 95.76 95.6 95.42 95.28 95.08 95.03 94.98 94.84 94.73 94.6 94.46 94.28 94.2 94.04 93.94 93.82 93.73 93.62 93.53 93.43 93.33 93.25 93.13 93.04 92.9 92.77 92.68 92.6 92.53 92.46 92.37 92.27 92.16 92.03 91.99 91.86 91.79 91.71 91.62 91.51 91.41 91.3 91.25 91.14 91.04 90.98 90.87 90.78 90.75 90.72 90.67 90.61 90.48 90.33 90.22 90.09 90.08 90.01 90.02 89.71 89.72 89.61 89.51 89.39 89.27 89.21 89.1 88.99 88.91 88.78 88.66 88.5 88.39 88.26 88.19 88.02 87.88 87.73 87.63 87.51 87.41 87.33 87.2 87.19 87.19 87.05 86.99 86.96 86.89 86.81 86.73 86.66 86.58 86.52 86.43 86.35 86.27 86.19 86.12 86.02499 85.99 85.94 85.88 85.82 85.78 85.76 85.69 85.66 85.58 85.57 85.49 85.41 85.29 85.18 85.06 84.93 84.79 84.62 84.43 84.27 84.11 83.93 83.68 83.62 83.48 83.32 83.02 82.92 82.78 82.74 82.81 82.92 83 83.04 83.12 83.21 83.33 83.5 83.69 83.85 84.1 84.37 84.62 84.94 85.23 85.57 85.93 86.37 86.76 87.17 87.57 87.98 88.35 88.7 88.94 89.19 89.4 89.56 89.71 89.85 89.99 90.08 90.15 90.17 90.21 90.21 90.24 -9999 -9999 -9999 -9999 -9999 -9999 -9999 -9999 -9999 -9999 -9999 -9999 -9999 -9999 -9999 -9999 -9999 -9999 -9999 -9999 -9999 -9999 -9999 -9999 -9999 -9999 -9999 -9999 -9999 -9999 -9999 -9999 -9999 -9999 -9999 -9999 -9999 -9999 -9999 -9999 -9999 -9999 -9999 -9999 -9999 -9999 -9999 -9999 -9999 -9999 -9999 -9999 -9999 -9999 -9999 -9999 -9999 -9999 -9999 -9999 -9999 -9999 -9999 -9999 -9999 -9999 -9999 -9999 -9999 -9999 -9999 -9999 -9999 -9999 -9999 -9999 -9999 -9999 -9999 -9999 -9999 -9999 -9999 -9999 -9999 -9999 -9999 -9999 -9999 -9999 -9999 -9999 -9999 -9999 -9999 -9999 -9999 -9999 -9999 -9999
-9999 -9999 -9999 -9999 -9999 -9999 -9999 -9999 -9999 -9999 -9999 -9999 -9999 -9999 -9999 -9999 -9999 -9999 -9999 -9999 -9999 -9999 -9999 -9999 -9999 -9999 -9999 -9999 -9999 -9999 -9999 -9999 -9999 -9999 -9999 -9999 -9999 -9999 -9999 -9999 -9999 -9999 -9999 -9999 -9999 -9999 -9999 -9999 -9999 -9999 -9999 -9999 -9999 -9999 -9999 -9999 -9999 -9999 -9999 -9999 -9999 -9999 -9999 -9999 -9999 -9999 -9999 -9999 -9999 -9999 -9999 -9999 -9999 -9999 -9999 -9999 -9999 -9999 -9999 -9999 -9999 -9999 -9999 -9999 -9999 -9999 -9999 -9999 -9999 -9999 -9999 -9999 -9999 -9999 -9999 -9999 -9999 -9999 101.27 101.21 101.11 100.92 100.66 100.46 100.42 100.42 100.43 100.41 100.27 100.07 99.93 99.77 99.57 99.43 99.35 99.19 98.98 98.75 98.52 98.28 98.06 97.7 97.62 97.54 97.37 97.23 97.41 97.17 97.1 96.88 96.75 96.61 96.46 96.27 96.22 96.03 95.72 95.68 95.68 95.53 95.44 95.27 95.19 95.04 94.99 94.85 94.71 94.61 94.45 94.34 94.22 94.08 93.95 93.86 93.75 93.64 93.54 93.45 93.35 93.25 93.11 92.99 92.88 92.76 92.67 92.58 92.53 92.45 92.37 92.24 92.17 92.08 92.04 91.91 91.82 91.7 91.63 91.5 91.45 91.32 91.25 91.12 91.07 90.98 90.9 90.83 90.76 90.69 90.68 90.61 90.47 90.36 90.3 90.14 90.1 90.14 90.04 89.98 89.75 89.65 89.52 89.42 89.32 89.21 89.09 89 88.9 88.77 88.65 88.51 88.41 88.29 88.21 88.05 87.91 87.76 87.66 87.54 87.46 87.45 87.4 87.27 87.16 87.12 87.07 87 86.91 86.85 86.76 86.69 86.63 86.54 86.49 86.4 86.34 86.28 86.26 86.16 86.12 86.04 85.96 85.92 85.87 85.82 85.76 85.72 85.68 85.61 85.54 85.49 85.35 85.25 85.12 84.99 84.82 84.64 84.46 84.31 84.16 83.93 83.73 83.67 83.47 83.3 83.08 82.92 82.79 82.82 82.83 82.93 83.02 83.09 83.19 83.33 83.43 83.58 83.78 83.99 84.21 84.41 84.7 85.01 85.32 85.65 86.02 86.42 86.78 87.17 87.61 87.98 88.35 88.7 89.03 89.24 89.42 89.61 89.77 89.91 90.01 90.15 90.25 90.27 90.3 90.32 90.27 -9999 -9999 -9999 -9999 -9999 -9999 -9999 -9999 -9999 -9999 -9999 -9999 -9999 -9999 -9999 -9999 -9999 -9999 -9999 -9999 -9999 -9999 -9999 -9999 -9999 -9999 -9999 -9999 -9999 -9999 -9999 -9999 -9999 -9999 -9999 -9999 -9999 -9999 -9999 -9999 -9999 -9999 -9999 -9999 -9999 -9999 -9999 -9999 -9999 -9999 -9999 -9999 -9999 -9999 -9999 -9999 -9999 -9999 -9999 -9999 -9999 -9999 -9999 -9999 -9999 -9999 -9999 -9999 -9999 -9999 -9999 -9999 -9999 -9999 -9999 -9999 -9999 -9999 -9999 -9999 -9999 -9999 -9999 -9999 -9999 -9999 -9999 -9999 -9999 -9999 -9999 -9999 -9999 -9999 -9999 -9999 -9999 -9999 -9999 -9999
-9999 -9999 -9999 -9999 -9999 -9999 -9999 -9999 -9999 -9999 -9999 -9999 -9999 -9999 -9999 -9999 -9999 -9999 -9999 -9999 -9999 -9999 -9999 -9999 -9999 -9999 -9999 -9999 -9999 -9999 -9999 -9999 -9999 -9999 -9999 -9999 -9999 -9999 -9999 -9999 -9999 -9999 -9999 -9999 -9999 -9999 -9999 -9999 -9999 -9999 -9999 -9999 -9999 -9999 -9999 -9999 -9999 -9999 -9999 -9999 -9999 -9999 -9999 -9999 -9999 -9999 -9999 -9999 -9999 -9999 -9999 -9999 -9999 -9999 -9999 -9999 -9999 -9999 -9999 -9999 -9999 -9999 -9999 -9999 -9999 -9999 -9999 -9999 -9999 -9999 -9999 -9999 -9999 -9999 -9999 -9999 -9999 101.29 101.29 101.2 101.11 100.91 100.64 100.52 100.52 100.52 100.54 100.42 100.27 100.08 99.89 99.77 99.61 99.46 99.34 99.2 99.03 98.84 98.7 98.45 98.21 97.94 97.77 97.62 97.32 97.21 97.14 97 96.83 96.95 96.77 96.63 96.5 96.31 96.24 96.05 95.8 95.77499 95.67 95.53 95.42 95.16 95.18 95.07 94.97 94.83 94.74 94.58 94.46 94.33 94.24 94.11 93.99 93.86 93.76 93.68 93.58 93.48 93.35 93.23 93.1 92.97 92.89 92.78 92.65 92.56 92.49 92.44 92.32 92.25 92.17 92.09 92.02 91.95 91.84 91.77 91.66 91.53 91.42 91.35 91.23 91.16 91.1 90.98 90.91 90.83 90.84 90.82 90.73 90.59 90.47 90.38 90.34 90.17 90.12 90.2 89.99 89.89 89.78 89.66 89.5 89.45 89.34 89.22 89.11 89.03 88.9 88.77 88.63 88.51 88.4 88.33 88.19 88.04 87.9 87.81 87.7 87.63 87.55 87.47 87.45 87.36 87.26 87.18 87.1 87.05 86.97 86.85 86.8 86.73 86.66 86.63 86.56 86.52 86.45 86.35 86.31 86.22 86.2 86.09 86.06 86 85.98 85.91 85.89 85.82 85.76 85.68 85.6 85.51 85.4 85.27 85.17 85.02 84.87 84.71 84.58 84.38 84.22 83.97 83.8 83.69 83.49 83.26 83.07 82.89 82.85 82.89 82.95 83.03 83.11 83.19 83.28 83.39 83.52 83.72 83.87 84.13 84.34 84.53 84.8 85.11 85.42 85.76 86.08 86.46 86.89 87.26 87.65 88.03 88.43 88.73 89.02 89.29 89.49 89.67 89.84 89.99 90.09 90.2 90.28 90.31 90.36 90.36 90.34 -9999 -9999 -9999 -9999 -9999 -9999 -9999 -9999 -9999 -9999 -9999 -9999 -9999 -9999 -9999 -9999 -9999 -9999 -9999 -9999 -9999 -9999 -9999 -9999 -9999 -9999 -9999 -9999 -9999 -9999 -9999 -9999 -9999 -9999 -9999 -9999 -9999 -9999 -9999 -9999 -9999 -9999 -9999 -9999 -9999 -9999 -9999 -9999 -9999 -9999 -9999 -9999 -9999 -9999 -9999 -9999 -9999 -9999 -9999 -9999 -9999 -9999 -9999 -9999 -9999 -9999 -9999 -9999 -9999 -9999 -9999 -9999 -9999 -9999 -9999 -9999 -9999 -9999 -9999 -9999 -9999 -9999 -9999 -9999 -9999 -9999 -9999 -9999 -9999 -9999 -9999 -9999 -9999 -9999 -9999 -9999 -9999 -9999 -9999 -9999
-9999 -9999 -9999 -9999 -9999 -9999 -9999 -9999 -9999 -9999 -9999 -9999 -9999 -9999 -9999 -9999 -9999 -9999 -9999 -9999 -9999 -9999 -9999 -9999 -9999 -9999 -9999 -9999 -9999 -9999 -9999 -9999 -9999 -9999 -9999 -9999 -9999 -9999 -9999 -9999 -9999 -9999 -9999 -9999 -9999 -9999 -9999 -9999 -9999 -9999 -9999 -9999 -9999 -9999 -9999 -9999 -9999 -9999 -9999 -9999 -9999 -9999 -9999 -9999 -9999 -9999 -9999 -9999 -9999 -9999 -9999 -9999 -9999 -9999 -9999 -9999 -9999 -9999 -9999 -9999 -9999 -9999 -9999 -9999 -9999 -9999 -9999 -9999 -9999 -9999 -9999 -9999 -9999 -9999 -9999 -9999 -9999 101.33 101.25 101.21 101.05 100.82 100.67 100.61 100.59 100.56 100.5 100.43 100.22 100.07 99.89 99.78 99.65 99.49 99.34 99.17 99.04 98.87 98.7 98.49 98.27 98.11 97.82 97.78 97.53 97.44 97.19 96.95 96.85 96.78 96.64 96.49 96.55 96.48 96.26 95.96 95.89 95.59 95.53 95.44 95.26 95.14 95.12 95.01 94.91 94.82 94.71 94.6 94.48 94.32 94.2 94.1 94.04 93.92 93.83 93.71 93.58 93.49 93.36 93.22 93.14 92.98 92.84 92.76 92.66 92.58 92.48 92.41 92.34 92.23 92.21 92.13 92.07 91.98 91.87 91.77 91.63 91.59 91.48 91.37 91.28 91.21 91.13 91.01 90.94 90.88 90.83 90.79 90.71 90.58 90.49 90.48 90.27 90.22 90.28 90.1 90.05 89.89 89.81 89.65 89.56 89.44 89.34 89.24 89.16 89.04 88.91 88.77 88.64 88.53 88.43 88.34 88.18 88.1 87.94 87.87 87.74 87.68 87.68 87.65 87.53 87.37 87.31 87.26 87.16 87.08 87.01 86.93 86.87 86.76 86.68 86.64 86.57 86.54 86.52 86.46 86.4 86.345 86.32 86.23 86.19 86.11 86.06 86.04 85.96 85.88 85.81 85.74 85.66 85.56 85.46 85.33 85.22 85.04 84.89 84.74 84.62 84.44 84.2 84.02 83.94 83.74 83.5 83.25 83.08 82.95 82.9 82.95 83.05 83.11 83.19 83.27 83.4 83.51 83.64 83.83 83.99 84.21 84.45 84.71 84.94 85.2 85.53 85.86 86.22 86.57 86.95 87.35 87.7 88.11 88.47 88.76 89.09 89.28 89.53 89.72 89.89 90.05 90.19 90.24 90.35 90.41 90.42 90.41 90.38 -9999 -9999 -9999 -9999 -9999 -9999 -9999 -9999 -9999 -9999 -9999 -9999 -9999 -9999 -9999 -9999 -9999 -9999 -9999 -9999 -9999 -9999 -9999 -9999 -9999 -9999 -9999 -9999 -9999 -9999 -9999 -9999 -9999 -9999 -9999 -9999 -9999 -9999 -9999 -9999 -9999 -9999 -9999 -9999 -9999 -9999 -9999 -9999 -9999 -9999 -9999 -9999 -9999 -9999 -9999 -9999 -9999 -9999 -9999 -9999 -9999 -9999 -9999 -9999 -9999 -9999 -9999 -9999 -9999 -9999 -9999 -9999 -9999 -9999 -9999 -9999 -9999 -9999 -9999 -9999 -9999 -9999 -9999 -9999 -9999 -9999 -9999 -9999 -9999 -9999 -9999 -9999 -9999 -9999 -9999 -9999 -9999 -9999 -9999 -9999
-9999 -9999 -9999 -9999 -9999 -9999 -9999 -9999 -9999 -9999 -9999 -9999 -9999 -9999 -9999 -9999 -9999 -9999 -9999 -9999 -9999 -9999 -9999 -9999 -9999 -9999 -9999 -9999 -9999 -9999 -9999 -9999 -9999 -9999 -9999 -9999 -9999 -9999 -9999 -9999 -9999 -9999 -9999 -9999 -9999 -9999 -9999 -9999 -9999 -9999 -9999 -9999 -9999 -9999 -9999 -9999 -9999 -9999 -9999 -9999 -9999 -9999 -9999 -9999 -9999 -9999 -9999 -9999 -9999 -9999 -9999 -9999 -9999 -9999 -9999 -9999 -9999 -9999 -9999 -9999 -9999 -9999 -9999 -9999 -9999 -9999 -9999 -9999 -9999 -9999 -9999 -9999 -9999 -9999 -9999 -9999 101.32 101.29 101.24 101.15 101.02 100.88 100.8 100.71 100.7 100.65 100.54 100.39 100.22 100.05 99.89 99.78 99.67 99.52 99.42 99.27 99.08 98.95 98.75 98.54 98.37 98.19 98.04 97.94 97.73 97.63 97.43 97.15 97.03 96.8 96.56 96.48 96.42 96.28 96.11 96.01 95.82 95.595 95.5 95.36 95.17 95.13 95.02 94.93 94.77 94.72 94.61 94.57 94.46 94.34 94.23 94.11 94.06 93.93 93.82 93.71 93.63 93.49 93.35 93.26 93.12 93 92.84 92.77 92.67 92.56 92.5 92.44 92.32 92.25 92.21 92.16 92.06 92 91.91 91.79 91.66 91.6 91.51 91.43 91.27 91.24 91.14 91.04 90.99 90.93 90.87 90.84 90.77 90.57 90.53 90.43 90.34 90.25 90.29 90.16 90.03 89.94 89.79 89.65 89.58 89.46 89.35 89.25 89.18 89.02 88.93 88.78 88.67 88.55 88.45 88.36 88.2 88.11 88.01 87.92 87.84 87.77 87.69 87.71 87.63 87.44 87.37 87.28 87.2 87.1 87.02 86.94 86.88 86.81 86.73 86.68 86.6 86.63 86.56 86.53 86.5 86.405 86.38 86.34 86.27 86.25 86.18 86.14 86.08 86.01 85.89 85.82 85.72 85.6 85.49 85.33 85.24 85.06 84.92 84.8 84.72 84.48 84.22 84.09 84.03 83.72 83.44 83.26 83.09 83 82.98 83.03 83.1 83.21 83.28 83.38 83.49 83.65 83.81 83.94 84.16 84.36 84.57 84.79 85.1 85.34 85.68 85.99 86.32 86.68 87.04 87.43 87.82 88.2 88.51 88.86 89.15 89.35 89.58 89.81 89.94 90.07 90.22 90.3 90.41 90.44 90.5 90.46 90.41 -9999 -9999 -9999 -9999 -9999 -9999 -9999 -9999 -9999 -9999 -9999 -9999 -9999 -9999 -9999 -9999 -9999 -9999 -9999 -9999 -9999 -9999 -9999 -9999 -9999 -9999 -9999 -9999 -9999 -9999 -9999 -9999 -9999 -9999 -9999 -9999 -9999 -9999 -9999 -9999 -9999 -9999 -9999 -9999 -9999 -9999 -9999 -9999 -9999 -9999 -9999 -9999 -9999 -9999 -9999 -9999 -9999 -9999 -9999 -9999 -9999 -9999 -9999 -9999 -9999 -9999 -9999 -9999 -9999 -9999 -9999 -9999 -9999 -9999 -9999 -9999 -9999 -9999 -9999 -9999 -9999 -9999 -9999 -9999 -9999 -9999 -9999 -9999 -9999 -9999 -9999 -9999 -9999 -9999 -9999 -9999 -9999 -9999 -9999 -9999
-9999 -9999 -9999 -9999 -9999 -9999 -9999 -9999 -9999 -9999 -9999 -9999 -9999 -9999 -9999 -9999 -9999 -9999 -9999 -9999 -9999 -9999 -9999 -9999 -9999 -9999 -9999 -9999 -9999 -9999 -9999 -9999 -9999 -9999 -9999 -9999 -9999 -9999 -9999 -9999 -9999 -9999 -9999 -9999 -9999 -9999 -9999 -9999 -9999 -9999 -9999 -9999 -9999 -9999 -9999 -9999 -9999 -9999 -9999 -9999 -9999 -9999 -9999 -9999 -9999 -9999 -9999 -9999 -9999 -9999 -9999 -9999 -9999 -9999 -9999 -9999 -9999 -9999 -9999 -9999 -9999 -9999 -9999 -9999 -9999 -9999 -9999 -9999 -9999 -9999 -9999 -9999 -9999 -9999 -9999 101.31 101.32 101.31 101.2 101.15 101.04 100.92 100.86 100.82 100.78 100.66 100.55 100.39 100.2 100.07 99.92 99.78 99.66 99.51 99.4 99.3 99.09 98.95 98.74 98.58 98.36 98.3 98.07 97.82 97.64 97.51 97.31 97.11 97.08 96.82 96.71 96.6 96.4 96.22 96.1 96.04 95.87 95.555 95.48 95.46 95.3 95.14 94.98 94.84 94.72 94.61 94.57 94.4 94.35 94.26 94.21 94.06 93.99 93.91 93.79 93.73 93.62 93.52 93.38 93.22 93.07 93 92.87 92.73 92.69 92.61 92.51 92.39 92.37 92.29 92.23 92.17 92.03 91.96 91.89 91.8 91.71 91.65 91.49 91.39 91.32 91.26 91.12 91.08 91.04 90.95 90.89 90.83 90.76 90.61 90.54 90.38 90.3 90.32 90.23 90.15 90.01 89.93 89.79 89.67 89.58 89.47 89.36 89.26 89.15 89.04 88.95 88.8 88.71 88.55 88.46 88.37 88.24 88.14 88.09 87.99 87.91 87.87 87.85 87.72 87.5 87.5 87.43 87.34 87.23 87.15 87.09 87.03 86.96 86.9 86.82 86.75 86.7 86.66 86.61 86.58 86.54 86.475 86.46 86.41 86.38 86.33 86.27 86.2 86.15 86.06 85.97 85.89 85.75 85.68 85.54 85.4 85.22 85.05 84.91 84.79 84.63 84.42 84.22 84.19 83.99 83.67 83.46 83.32 83.18 83.1 83.1 83.13 83.22 83.31 83.37 83.5 83.61 83.77 83.93 84.1 84.29 84.5 84.7 84.95 85.21 85.48 85.81 86.08 86.45 86.81 87.17 87.56 87.89 88.25 88.6 88.93 89.21 89.45 89.66 89.86 89.98 90.16 90.27 90.37 90.45 90.52 90.53 90.55 -9999 -9999 -9999 -9999 -9999 -9999 -9999 -9999 -9999 -9999 -9999 -9999 -9999 -9999 -9999 -9999 -9999 -9999 -9999 -9999 -9999 -9999 -9999 -9999 -9999 -9999 -9999 -9999 -9999 -9999 -9999 -9999 -9999 -9999 -9999 -9999 -9999 -9999 -9999 -9999 -9999 -9999 -9999 -9999 -9999 -9999 -9999 -9999 -9999 -9999 -9999 -9999 -9999 -9999 -9999 -9999 -9999 -9999 -9999 -9999 -9999 -9999 -9999 -9999 -9999 -9999 -9999 -9999 -9999 -9999 -9999 -9999 -9999 -9999 -9999 -9999 -9999 -9999 -9999 -9999 -9999 -9999 -9999 -9999 -9999 -9999 -9999 -9999 -9999 -9999 -9999 -9999 -9999 -9999 -9999 -9999 -9999 -9999 -9999 -9999 -9999
-9999 -9999 -9999 -9999 -9999 -9999 -9999 -9999 -9999 -9999 -9999 -9999 -9999 -9999 -9999 -9999 -9999 -9999 -9999 -9999 -9999 -9999 -9999 -9999 -9999 -9999 -9999 -9999 -9999 -9999 -9999 -9999 -9999 -9999 -9999 -9999 -9999 -9999 -9999 -9999 -9999 -9999 -9999 -9999 -9999 -9999 -9999 -9999 -9999 -9999 -9999 -9999 -9999 -9999 -9999 -9999 -9999 -9999 -9999 -9999 -9999 -9999 -9999 -9999 -9999 -9999 -9999 -9999 -9999 -9999 -9999 -9999 -9999 -9999 -9999 -9999 -9999 -9999 -9999 -9999 -9999 -9999 -9999 -9999 -9999 -9999 -9999 -9999 -9999 -9999 -9999 -9999 -9999 -9999 -9999 101.36 101.33 101.27 101.22 101.11 101.01 100.98 100.92 100.87 100.83 100.7 100.55 100.35 100.2 100.06 99.97 99.81 99.61 99.53 99.4 99.28 99.08 98.95 98.76 98.58 98.47 98.16 98.09 97.99 97.84 97.68 97.53 97.36 97.23 97.04 96.92 96.7 96.54 96.35 96.11 95.99 95.79 95.65 95.62 95.44 95.26 95.13 95.07 94.86 94.73 94.67 94.46 94.39 94.24 94.19 94.15 94.03 94.02 93.9 93.83 93.66 93.59 93.47 93.34 93.23 93.13 92.99 92.88 92.85 92.72 92.6 92.52 92.46 92.38 92.32 92.24 92.17 92.06 91.98 91.9 91.79 91.7 91.6 91.55 91.42 91.36 91.24 91.19 91.13 91.06 90.99 90.94 90.83 90.74 90.61 90.62 90.45 90.34 90.37 90.28 90.15 90.03 89.91 89.78 89.69 89.56 89.45 89.35 89.29 89.19 89.05 88.95 88.82 88.69 88.59 88.46 88.37 88.26 88.14 88.08 88.03 87.97 87.9 87.89 87.81 87.65 87.57 87.49 87.37 87.3 87.2 87.13 87.05 87 86.93 86.88 86.82 86.78 86.75 86.71 86.66 86.59 86.50999 86.49 86.44 86.41 86.35 86.32 86.25 86.19 86.13 86.03 85.94 85.79 85.66 85.51 85.38 85.19 85.05 84.92 84.84 84.6 84.35 84.37 84.27 83.95 83.66 83.48 83.33 83.22 83.17 83.21 83.19 83.33 83.43 83.52 83.6 83.77 83.87 84.06 84.24 84.43 84.64 84.83 85.12 85.34 85.62 85.93 86.25 86.54 86.9 87.31 87.65 88.03 88.36 88.66 89 89.26 89.52 89.77 89.89 90.08 90.23 90.32 90.42 90.53 90.58 90.58 90.59 -9999 -9999 -9999 -9999 -9999 -9999 -9999 -9999 -9999 -9999 -9999 -9999 -9999 -9999 -9999 -9999 -9999 -9999 -9999 -9999 -9999 -9999 -9999 -9999 -9999 -9999 -9999 -9999 -9999 -9999 -9999 -9999 -9999 -9999 -9999 -9999 -9999 -9999 -9999 -9999 -9999 -9999 -9999 -9999 -9999 -9999 -9999 -9999 -9999 -9999 -9999 -9999 -9999 -9999 -9999 -9999 -9999 -9999 -9999 -9999 -9999 -9999 -9999 -9999 -9999 -9999 -9999 -9999 -9999 -9999 -9999 -9999 -9999 -9999 -9999 -9999 -9999 -9999 -9999 -9999 -9999 -9999 -9999 -9999 -9999 -9999 -9999 -9999 -9999 -9999 -9999 -9999 -9999 -9999 -9999 -9999 -9999 -9999 -9999 -9999 -9999
-9999 -9999 -9999 -9999 -9999 -9999 -9999 -9999 -9999 -9999 -9999 -9999 -9999 -9999 -9999 -9999 -9999 -9999 -9999 -9999 -9999 -9999 -9999 -9999 -9999 -9999 -9999 -9999 -9999 -9999 -9999 -9999 -9999 -9999 -9999 -9999 -9999 -9999 -9999 -9999 -9999 -9999 -9999 -9999 -9999 -9999 -9999 -9999 -9999 -9999 -9999 -9999 -9999 -9999 -9999 -9999 -9999 -9999 -9999 -9999 -9999 -9999 -9999 -9999 -9999 -9999 -9999 -9999 -9999 -9999 -9999 -9999 -9999 -9999 -9999 -9999 -9999 -9999 -9999 -9999 -9999 -9999 -9999 -9999 -9999 -9999 -9999 -9999 -9999 -9999 -9999 -9999 -9999 -9999 101.41 101.38 101.35 101.29 101.18 101.12 101.05 100.98 100.94 100.9 100.8 100.68 100.52 100.35 100.22 100.1 99.97 99.78 99.7 99.52 99.39 99.24 99.08 98.94 98.75 98.6 98.54 98.37 98.26 97.98 97.97 97.8 97.56 97.25 97.08 96.89 96.71 96.61 96.42 96.27 96.16 96.05 95.98 95.675 95.61 95.39 95.3 95.21 95.04 94.85 94.71 94.67 94.46 94.39 94.27 94.18 94.02 93.87 93.85 93.83 93.78 93.67 93.57 93.45 93.33 93.19 93.1 93.02 92.86 92.77 92.71 92.64 92.52 92.46 92.37 92.33 92.26 92.14 92.07 91.99 91.86 91.75 91.72 91.56 91.51 91.46 91.36 91.27 91.16 91.16 91.14 91.04 90.95 90.85 90.74 90.6 90.55 90.46 90.43 90.14 90.24 90.15 90.04 89.9 89.79 89.68 89.57 89.46 89.31 89.27 89.17 89.05 88.91 88.8 88.68 88.61 88.49 88.4 88.31 88.21 88.13 88.08 88.03 87.99 87.87 87.76 87.68 87.6 87.53 87.42 87.34 87.28 87.19 87.13 87.07 87.01 86.93 86.91 86.86 86.81 86.74 86.67 86.64 86.57 86.55 86.49 86.49 86.4 86.34 86.29 86.2 86.17 86.07 85.95 85.85 85.68 85.54 85.41 85.22 85.04 84.91 84.73 84.54 84.33 84.39 84.23 84.01 83.65 83.47 83.36 83.25 83.24 83.24 83.29 83.39 83.5 83.62 83.73 83.85 84.04 84.21 84.37 84.6 84.81 84.99 85.23 85.49 85.76 86.02 86.39 86.7 87.01 87.36 87.78 88.14 88.48 88.77 89.12 89.37 89.59 89.81 90.03 90.16 90.27 90.41 90.46 90.56 90.58 90.62 90.59 -9999 -9999 -9999 -9999 -9999 -9999 -9999 -9999 -9999 -9999 -9999 -9999 -9999 -9999 -9999 -9999 -9999 -9999 -9999 -9999 -9999 -9999 -9999 -9999 -9999 -9999 -9999 -9999 -9999 -9999 -9999 -9999 -9999 -9999 -9999 -9999 -9999 -9999 -9999 -9999 -9999 -9999 -9999 -9999 -9999 -9999 -9999 -9999 -9999 -9999 -9999 -9999 -9999 -9999 -9999 -9999 -9999 -9999 -9999 -9999 -9999 -9999 -9999 -9999 -9999 -9999 -9999 -9999 -9999 -9999 -9999 -9999 -9999 -9999 -9999 -9999 -9999 -9999 -9999 -9999 -9999 -9999 -9999 -9999 -9999 -9999 -9999 -9999 -9999 -9999 -9999 -9999 -9999 -9999 -9999 -9999 -9999 -9999 -9999 -9999 -9999
-9999 -9999 -9999 -9999 -9999 -9999 -9999 -9999 -9999 -9999 -9999 -9999 -9999 -9999 -9999 -9999 -9999 -9999 -9999 -9999 -9999 -9999 -9999 -9999 -9999 -9999 -9999 -9999 -9999 -9999 -9999 -9999 -9999 -9999 -9999 -9999 -9999 -9999 -9999 -9999 -9999 -9999 -9999 -9999 -9999 -9999 -9999 -9999 -9999 -9999 -9999 -9999 -9999 -9999 -9999 -9999 -9999 -9999 -9999 -9999 -9999 -9999 -9999 -9999 -9999 -9999 -9999 -9999 -9999 -9999 -9999 -9999 -9999 -9999 -9999 -9999 -9999 -9999 -9999 -9999 -9999 -9999 -9999 -9999 -9999 -9999 -9999 -9999 -9999 -9999 -9999 -9999 -9999 -9999 101.44 101.41 101.39 101.3 101.23 101.14 101.05 101.01 100.94 100.87 100.8 100.68 100.49 100.4 100.25 100.09 99.93 99.8 99.64 99.54 99.39 99.23 99.06 98.89 98.72 98.63 98.41 98.29 98.13 98 97.83 97.7 97.52 97.33 97.21 97.01 96.93 96.74 96.74 96.53 96.21 96.14 95.89 95.615 95.59 95.53 95.34 95.16 95.01 94.89 94.82 94.67 94.49 94.38 94.3 94.12 94.02 93.91 93.83 93.74 93.67 93.64 93.52 93.44 93.32 93.2 93.08 92.97 92.87 92.83 92.71 92.59 92.56 92.51 92.41 92.35 92.23 92.17 92.07 91.98 91.86 91.76 91.68 91.56 91.5 91.44 91.35 91.28 91.22 91.15 91.1 91.06 91 90.87 90.72 90.67 90.54 90.48 90.54 90.39 90.23 90.11 90 89.91 89.75 89.67 89.56 89.46 89.35 89.29 89.16 89.03 88.93 88.82 88.72 88.63 88.52 88.41 88.32 88.23 88.13 88.07 88.08 88.03 87.9 87.8 87.74 87.68 87.58 87.5 87.42 87.35 87.24 87.18 87.1 87.04 86.99 86.96 86.92 86.87 86.81 86.77 86.7 86.61 86.59 86.55 86.47 86.43 86.35 86.3 86.23 86.16 86.08 85.96 85.85 85.7 85.55 85.35 85.2 85.02 84.92 84.7 84.48 84.37 84.44 84.17 83.88 83.68 83.5 83.37 83.33 83.27 83.27 83.37 83.45 83.6 83.7 83.83 83.96 84.14 84.34 84.53 84.73 84.94 85.17 85.39 85.65 85.92 86.18 86.48 86.8 87.16 87.54 87.86 88.23 88.57 88.89 89.19 89.44 89.7 89.9 90.05 90.2 90.33 90.43 90.53 90.62 90.66 90.68 -9999 -9999 -9999 -9999 -9999 -9999 -9999 -9999 -9999 -9999 -9999 -9999 -9999 -9999 -9999 -9999 -9999 -9999 -9999 -9999 -9999 -9999 -9999 -9999 -9999 -9999 -9999 -9999 -9999 -9999 -9999 -9999 -9999 -9999 -9999 -9999 -9999 -9999 -9999 -9999 -9999 -9999 -9999 -9999 -9999 -9999 -9999 -9999 -9999 -9999 -9999 -9999 -9999 -9999 -9999 -9999 -9999 -9999 -9999 -9999 -9999 -9999 -9999 -9999 -9999 -9999 -9999 -9999 -9999 -9999 -9999 -9999 -9999 -9999 -9999 -9999 -9999 -9999 -9999 -9999 -9999 -9999 -9999 -9999 -9999 -9999 -9999 -9999 -9999 -9999 -9999 -9999 -9999 -9999 -9999 -9999 -9999 -9999 -9999 -9999 -9999 -9999
-9999 -9999 -9999 -9999 -9999 -9999 -9999 -9999 -9999 -9999 -9999 -9999 -9999 -9999 -9999 -9999 -9999 -9999 -9999 -9999 -9999 -9999 -9999 -9999 -9999 -9999 -9999 -9999 -9999 -9999 -9999 -9999 -9999 -9999 -9999 -9999 -9999 -9999 -9999 -9999 -9999 -9999 -9999 -9999 -9999 -9999 -9999 -9999 -9999 -9999 -9999 -9999 -9999 -9999 -9999 -9999 -9999 -9999 -9999 -9999 -9999 -9999 -9999 -9999 -9999 -9999 -9999 -9999 -9999 -9999 -9999 -9999 -9999 -9999 -9999 -9999 -9999 -9999 -9999 -9999 -9999 -9999 -9999 -9999 -9999 -9999 -9999 -9999 -9999 -9999 -9999 -9999 -9999 101.47 101.44 101.41 101.38 101.31 101.23 101.15 101.05 101.02 100.95 100.87 100.79 100.61 100.49 100.38 100.2 100.08 99.93 99.77 99.66 99.56 99.36 99.21 99 98.83 98.74 98.55 98.41 98.3 98.15 98.15 97.94 97.82 97.69 97.52 97.33 97.16 96.95 96.76 96.66 96.34 96.3 96.17 96.02 95.77499 95.67 95.57 95.48 95.32 95.07 94.88 94.78 94.57 94.53 94.44 94.3 94.13 93.97 93.9 93.79 93.7 93.64 93.54 93.47 93.33 93.29 93.21 93.05 92.96 92.88 92.8 92.73 92.67 92.59 92.51 92.45 92.42 92.29 92.16 92.14 91.97 91.87 91.76 91.65 91.56 91.53 91.43 91.39 91.25 91.2 91.2 91.14 91.12 91.02 90.88 90.75 90.69 90.52 90.55 90.47 90.34 90.28 90.12 90 89.86 89.77 89.66 89.55 89.47 89.39 89.27 89.15 89.03 88.93 88.81 88.74 88.64 88.55 88.43 88.35 88.26 88.16 88.12 88.03 88 87.95 87.79 87.77 87.67 87.62 87.55 87.44 87.37 87.31 87.27 87.19 87.13 87.07 87.01 86.96 86.9 86.84 86.79 86.72 86.625 86.62 86.56 86.51 86.45 86.38 86.31 86.21 86.14 86.09 85.96 85.83 85.68 85.5 85.3 85.18 85.04 84.88 84.7 84.4 84.47 84.32 84.06 83.76 83.64 83.52 83.39 83.37 83.33 83.3 83.4 83.51 83.62 83.75 83.84 84.07 84.23 84.4 84.63 84.83 85.09 85.31 85.56 85.8 86.08 86.35 86.62 86.92 87.26 87.63 87.96 88.35 88.67 88.99 89.28 89.54 89.8 89.98 90.13 90.25 90.37 90.43 90.56 90.63 90.69 90.68 -9999 -9999 -9999 -9999 -9999 -9999 -9999 -9999 -9999 -9999 -9999 -9999 -9999 -9999 -9999 -9999 -9999 -9999 -9999 -9999 -9999 -9999 -9999 -9999 -9999 -9999 -9999 -9999 -9999 -9999 -9999 -9999 -9999 -9999 -9999 -9999 -9999 -9999 -9999 -9999 -9999 -9999 -9999 -9999 -9999 -9999 -9999 -9999 -9999 -9999 -9999 -9999 -9999 -9999 -9999 -9999 -9999 -9999 -9999 -9999 -9999 -9999 -9999 -9999 -9999 -9999 -9999 -9999 -9999 -9999 -9999 -9999 -9999 -9999 -9999 -9999 -9999 -9999 -9999 -9999 -9999 -9999 -9999 -9999 -9999 -9999 -9999 -9999 -9999 -9999 -9999 -9999 -9999 -9999 -9999 -9999 -9999 -9999 -9999 -9999 -9999 -9999
-9999 -9999 -9999 -9999 -9999 -9999 -9999 -9999 -9999 -9999 -9999 -9999 -9999 -9999 -9999 -9999 -9999 -9999 -9999 -9999 -9999 -9999 -9999 -9999 -9999 -9999 -9999 -9999 -9999 -9999 -9999 -9999 -9999 -9999 -9999 -9999 -9999 -9999 -9999 -9999 -9999 -9999 -9999 -9999 -9999 -9999 -9999 -9999 -9999 -9999 -9999 -9999 -9999 -9999 -9999 -9999 -9999 -9999 -9999 -9999 -9999 -9999 -9999 -9999 -9999 -9999 -9999 -9999 -9999 -9999 -9999 -9999 -9999 -9999 -9999 -9999 -9999 -9999 -9999 -9999 -9999 -9999 -9999 -9999 -9999 -9999 -9999 -9999 -9999 -9999 -9999 -9999 -9999 101.47 101.45 101.44 101.4 101.34 101.23 101.13 101.04 101.04 100.97 100.88 100.77 100.56 100.46 100.35 100.24 100.06 99.93 99.79 99.67 99.48 99.35 99.16 99 98.83 98.6 98.68 98.51 98.35 98.32 98.18 98 97.79 97.54 97.35 97.13 97 96.83 96.74 96.58 96.49 96.41 96.28 96.08 95.755 95.64 95.54 95.3 95.19 94.97 94.9 94.89 94.68 94.53 94.42 94.28 94.16 94.07 93.95 93.76 93.63 93.57 93.47 93.36 93.25 93.2 93.14 93.02 92.96 92.88 92.8 92.73 92.66 92.57 92.53 92.44 92.38 92.3 92.22 92.07 91.97 91.9 91.73 91.64 91.56 91.51 91.42 91.34 91.29 91.23 91.19 91.17 91.09 90.99 90.86 90.83 90.69 90.51 90.62 90.54 90.39 90.22 90.09 89.96 89.83 89.75 89.65 89.54 89.45 89.37 89.25 89.16 89.03 88.94 88.83 88.74 88.65 88.55 88.5 88.39 88.28 88.18 88.18 88.16 88 87.85 87.81 87.75 87.72 87.66 87.59 87.53 87.47 87.38 87.31 87.24 87.17 87.14 87.09 87.06 86.97 86.9 86.84 86.75 86.67 86.64 86.57 86.51 86.46 86.37 86.3 86.21 86.11 86.02 85.9 85.8 85.64 85.45 85.28 85.11 85.02 84.91 84.61 84.35 84.49 84.26 83.99 83.76 83.64 83.51 83.46 83.41 83.42 83.41 83.5 83.59 83.67 83.78 83.92 84.09 84.28 84.49 84.74 84.93 85.17 85.42 85.66 85.95 86.23 86.49 86.83 87.12 87.42 87.77 88.1 88.48 88.76 89.1 89.37 89.63 89.84 90.06 90.19 90.31 90.39 90.52 90.6 90.65 90.66 90.72 90.69 -9999 -9999 -9999 -9999 -9999 -9999 -9999 -9999 -9999 -9999 -9999 -9999 -9999 -9999 -9999 -9999 -9999 -9999 -9999 -9999 -9999 -9999 -9999 -9999 -9999 -9999 -9999 -9999 -9999 -9999 -9999 -9999 -9999 -9999 -9999 -9999 -9999 -9999 -9999 -9999 -9999 -9999 -9999 -9999 -9999 -9999 -9999 -9999 -9999 -9999 -9999 -9999 -9999 -9999 -9999 -9999 -9999 -9999 -9999 -9999 -9999 -9999 -9999 -9999 -9999 -9999 -9999 -9999 -9999 -9999 -9999 -9999 -9999 -9999 -9999 -9999 -9999 -9999 -9999 -9999 -9999 -9999 -9999 -9999 -9999 -9999 -9999 -9999 -9999 -9999 -9999 -9999 -9999 -9999 -9999 -9999 -9999 -9999 -9999 -9999 -9999
-9999 -9999 -9999 -9999 -9999 -9999 -9999 -9999 -9999 -9999 -9999 -9999 -9999 -9999 -9999 -9999 -9999 -9999 -9999 -9999 -9999 -9999 -9999 -9999 -9999 -9999 -9999 -9999 -9999 -9999 -9999 -9999 -9999 -9999 -9999 -9999 -9999 -9999 -9999 -9999 -9999 -9999 -9999 -9999 -9999 -9999 -9999 -9999 -9999 -9999 -9999 -9999 -9999 -9999 -9999 -9999 -9999 -9999 -9999 -9999 -9999 -9999 -9999 -9999 -9999 -9999 -9999 -9999 -9999 -9999 -9999 -9999 -9999 -9999 -9999 -9999 -9999 -9999 -9999 -9999 -9999 -9999 -9999 -9999 -9999 -9999 -9999 -9999 -9999 -9999 -9999 -9999 101.46 101.44 101.44 101.42 101.37 101.29 101.25 101.12 101.11 101.05 100.93 100.85 100.69 100.53 100.44 100.35 100.22 100.03 99.89 99.79 99.66 99.52 99.31 99.14 98.95 98.82 98.76 98.49 98.37 98.24 98.06 97.99 97.77 97.69 97.53 97.35 97.31 97.19 97.02 96.95 96.65 96.54 96.38 96.3 95.94 95.8 95.79 95.65 95.51 95.3 95.22 95.06 94.92 94.84 94.6 94.53 94.44 94.3 94.1 93.95 93.74 93.67 93.55 93.37 93.31 93.27 93.11 93.01 93 92.88 92.86 92.74 92.71 92.64 92.61 92.53 92.41 92.36 92.26 92.22 92.09 92.02 91.85 91.74 91.66 91.54 91.46 91.41 91.29 91.2 91.23 91.2 91.18 91.09 90.96 90.81 90.82 90.67 90.64 90.69 90.38 90.35 90.24 90.09 89.94 89.85 89.76 89.63 89.53 89.47 89.37 89.24 89.08 89.01 88.89 88.84 88.75 88.65 88.6 88.5 88.37 88.29 88.22 88.15 88.14 87.98 87.88 87.78 87.74 87.71 87.66 87.6 87.55 87.53 87.46 87.36 87.32 87.28 87.22 87.16 87.08 87 86.96 86.88 86.79 86.715 86.68 86.6 86.51 86.45 86.4 86.28 86.21 86.13 86.03 85.89 85.76 85.57 85.42 85.22 85.06 84.99 84.85 84.51 84.46 84.34 84.05 83.86 83.72 83.56 83.52 83.49 83.45 83.44 83.46 83.56 83.66 83.74 83.87 83.99 84.12 84.34 84.54 84.78 85.04 85.29 85.55 85.78 86.04 86.34 86.65 86.96 87.24 87.56 87.9 88.22 88.58 88.86 89.16 89.5 89.73 89.95 90.12 90.26 90.37 90.48 90.56 90.62 90.68 90.71 90.72 90.69 -9999 -9999 -9999 -9999 -9999 -9999 -9999 -9999 -9999 -9999 -9999 -9999 -9999 -9999 -9999 -9999 -9999 -9999 -9999 -9999 -9999 -9999 -9999 -9999 -9999 -9999 -9999 -9999 -9999 -9999 -9999 -9999 -9999 -9999 -9999 -9999 -9999 -9999 -9999 -9999 -9999 -9999 -9999 -9999 -9999 -9999 -9999 -9999 -9999 -9999 -9999 -9999 -9999 -9999 -9999 -9999 -9999 -9999 -9999 -9999 -9999 -9999 -9999 -9999 -9999 -9999 -9999 -9999 -9999 -9999 -9999 -9999 -9999 -9999 -9999 -9999 -9999 -9999 -9999 -9999 -9999 -9999 -9999 -9999 -9999 -9999 -9999 -9999 -9999 -9999 -9999 -9999 -9999 -9999 -9999 -9999 -9999 -9999 -9999 -9999 -9999
-9999 -9999 -9999 -9999 -9999 -9999 -9999 -9999 -9999 -9999 -9999 -9999 -9999 -9999 -9999 -9999 -9999 -9999 -9999 -9999 -9999 -9999 -9999 -9999 -9999 -9999 -9999 -9999 -9999 -9999 -9999 -9999 -9999 -9999 -9999 -9999 -9999 -9999 -9999 -9999 -9999 -9999 -9999 -9999 -9999 -9999 -9999 -9999 -9999 -9999 -9999 -9999 -9999 -9999 -9999 -9999 -9999 -9999 -9999 -9999 -9999 -9999 -9999 -9999 -9999 -9999 -9999 -9999 -9999 -9999 -9999 -9999 -9999 -9999 -9999 -9999 -9999 -9999 -9999 -9999 -9999 -9999 -9999 -9999 -9999 -9999 -9999 -9999 -9999 -9999 -9999 -9999 101.48 101.48 101.44 101.43 101.4 101.31 101.22 101.18 101.11 101.05 100.94 100.79 100.62 100.54 100.42 100.3 100.19 100.03 99.89 99.79 99.63 99.44 99.29 99.09 98.95 98.7 98.62 98.51 98.41 98.3 98.21 98.12 97.95 97.76 97.58 97.45 97.25 97.14 97.01 96.71 96.65 96.62 96.57 96.33 96.15 95.96 95.84 95.73 95.62 95.41 95.22 94.98 94.83 94.7 94.66 94.51 94.47 94.31 94.4 94.06 93.62 93.64 93.53 93.38 93.3 93.18 93.05 92.99 92.98 92.81 92.74 92.71 92.67 92.63 92.56 92.52 92.4 92.34 92.22 92.19 92.07 91.94 91.87 91.75 91.64 91.53 91.46 91.37 91.27 91.24 91.23 91.17 91.14 91.07 90.98 90.82 90.81 90.66 90.74 90.59 90.49 90.31 90.22 90.06 89.95 89.85 89.71 89.62 89.53 89.45 89.35 89.22 89.14 89.01 88.91 88.85 88.83 88.71 88.58 88.42 88.37 88.24 88.28 88.23 88.08 87.88 87.82 87.79 87.75 87.72 87.67 87.62 87.58 87.53 87.51 87.41 87.38 87.33 87.29 87.18 87.14 87.07 87.02 86.91 86.85 86.72501 86.69 86.62 86.51 86.45 86.36 86.29 86.21 86.1 86 85.88 85.7 85.53 85.32 85.13 85.02 84.92 84.72 84.47 84.43 84.26 84.06 83.77 83.68 83.56 83.52 83.49 83.5 83.51 83.56 83.64 83.72 83.85 83.93 84.08 84.21 84.44 84.61 84.81 85.08 85.33 85.6 85.91 86.17 86.46 86.76 87.09 87.43 87.73 88.06 88.4 88.73 89.03 89.32 89.6 89.84 90.06 90.18 90.31 90.43 90.54 90.59 90.67 90.73 90.73 90.69 90.72 -9999 -9999 -9999 -9999 -9999 -9999 -9999 -9999 -9999 -9999 -9999 -9999 -9999 -9999 -9999 -9999 -9999 -9999 -9999 -9999 -9999 -9999 -9999 -9999 -9999 -9999 -9999 -9999 -9999 -9999 -9999 -9999 -9999 -9999 -9999 -9999 -9999 -9999 -9999 -9999 -9999 -9999 -9999 -9999 -9999 -9999 -9999 -9999 -9999 -9999 -9999 -9999 -9999 -9999 -9999 -9999 -9999 -9999 -9999 -9999 -9999 -9999 -9999 -9999 -9999 -9999 -9999 -9999 -9999 -9999 -9999 -9999 -9999 -9999 -9999 -9999 -9999 -9999 -9999 -9999 -9999 -9999 -9999 -9999 -9999 -9999 -9999 -9999 -9999 -9999 -9999 -9999 -9999 -9999 -9999 -9999 -9999 -9999 -9999 -9999 -9999
-9999 -9999 -9999 -9999 -9999 -9999 -9999 -9999 -9999 -9999 -9999 -9999 -9999 -9999 -9999 -9999 -9999 -9999 -9999 -9999 -9999 -9999 -9999 -9999 -9999 -9999 -9999 -9999 -9999 -9999 -9999 -9999 -9999 -9999 -9999 -9999 -9999 -9999 -9999 -9999 -9999 -9999 -9999 -9999 -9999 -9999 -9999 -9999 -9999 -9999 -9999 -9999 -9999 -9999 -9999 -9999 -9999 -9999 -9999 -9999 -9999 -9999 -9999 -9999 -9999 -9999 -9999 -9999 -9999 -9999 -9999 -9999 -9999 -9999 -9999 -9999 -9999 -9999 -9999 -9999 -9999 -9999 -9999 -9999 -9999 -9999 -9999 -9999 -9999 -9999 -9999 -9999 101.52 101.46 101.45 101.37 101.39 101.33 101.21 101.16 101.12 101.03 100.92 100.69 100.59 100.49 100.39 100.24 100.07 100.02 99.9 99.71 99.59 99.42 99.2 99.03 98.89 98.81 98.66 98.55 98.48 98.38 98.25 98.02 97.86 97.61 97.46 97.23 97.13 97.03 96.89 96.73 96.68 96.7 96.55 96.33 96.11 95.8 95.73 95.61 95.44 95.28 95.22 95.14 95.04 94.92 94.8 94.47 94.51 94.3 94.3 93.92 93.72 93.71 93.62 93.45 93.32 93.14 93.03 92.98 92.82 92.74 92.67 92.69 92.57 92.53 92.47 92.46 92.35 92.28 92.19 92.13 92.04 91.89 91.78 91.75 91.65 91.54 91.44 91.37 91.29 91.27 91.2 91.16 91.1 90.96 90.98 90.91 90.8 90.75 90.77 90.62 90.48 90.33 90.18 90.07 89.96 89.84 89.71 89.6 89.56 89.44 89.32 89.23 89.14 89.02 88.93 88.87 88.82 88.72 88.6 88.54 88.42 88.26 88.25 88.2 88.03 87.93 87.86 87.8 87.76 87.7 87.62 87.6 87.55 87.56 87.5 87.44 87.44 87.38 87.31 87.27 87.16 87.1 87.03 86.94 86.85 86.735 86.68 86.6 86.53 86.46 86.37 86.29 86.21 86.09 85.99 85.83 85.67 85.48 85.3 85.08 84.99 84.87 84.64 84.37 84.36 84.06 83.91 83.8 83.68 83.59 83.56 83.51 83.54 83.59 83.63 83.72 83.82 83.92 84.03 84.18 84.32 84.49 84.66 84.93 85.15 85.4 85.65 85.96 86.23 86.58 86.87 87.18 87.51 87.87 88.22 88.53 88.86 89.16 89.44 89.71 89.97 90.15 90.27 90.35 90.47 90.55 90.66 90.71 90.75 90.75 90.79 90.78 -9999 -9999 -9999 -9999 -9999 -9999 -9999 -9999 -9999 -9999 -9999 -9999 -9999 -9999 -9999 -9999 -9999 -9999 -9999 -9999 -9999 -9999 -9999 -9999 -9999 -9999 -9999 -9999 -9999 -9999 -9999 -9999 -9999 -9999 -9999 -9999 -9999 -9999 -9999 -9999 -9999 -9999 -9999 -9999 -9999 -9999 -9999 -9999 -9999 -9999 -9999 -9999 -9999 -9999 -9999 -9999 -9999 -9999 -9999 -9999 -9999 -9999 -9999 -9999 -9999 -9999 -9999 -9999 -9999 -9999 -9999 -9999 -9999 -9999 -9999 -9999 -9999 -9999 -9999 -9999 -9999 -9999 -9999 -9999 -9999 -9999 -9999 -9999 -9999 -9999 -9999 -9999 -9999 -9999 -9999 -9999 -9999 -9999 -9999 -9999 -9999
-9999 -9999 -9999 -9999 -9999 -9999 -9999 -9999 -9999 -9999 -9999 -9999 -9999 -9999 -9999 -9999 -9999 -9999 -9999 -9999 -9999 -9999 -9999 -9999 -9999 -9999 -9999 -9999 -9999 -9999 -9999 -9999 -9999 -9999 -9999 -9999 -9999 -9999 -9999 -9999 -9999 -9999 -9999 -9999 -9999 -9999 -9999 -9999 -9999 -9999 -9999 -9999 -9999 -9999 -9999 -9999 -9999 -9999 -9999 -9999 -9999 -9999 -9999 -9999 -9999 -9999 -9999 -9999 -9999 -9999 -9999 -9999 -9999 -9999 -9999 -9999 -9999 -9999 -9999 -9999 -9999 -9999 -9999 -9999 -9999 -9999 -9999 -9999 -9999 -9999 -9999 -9999 101.54 101.51 101.46 101.43 101.4 101.37 101.28 101.2 101.13 101.01 100.89 100.69 100.57 100.46 100.35 100.17 100.1 99.97 99.82 99.7 99.56 99.36 99.15 99 98.94 98.68 98.54 98.36 98.24 98.14 97.99 97.86 97.71 97.57 97.46 97.44 97.27 97.19 97 96.79 96.7 96.57 96.35 96.18 96.15 95.955 95.9 95.74 95.63 95.51 95.41 95.24 95.11 94.81 94.8 94.61 94.52 94.33 94.19 93.98 93.89 93.79 93.61 93.53 93.35 93.19 93.1 92.96 92.8 92.72 92.62 92.48 92.45 92.41 92.35 92.33 92.29 92.19 92.13 92.04 92 91.88 91.8 91.69 91.61 91.55 91.46 91.38 91.33 91.32 91.2 91.15 91.03 90.97 90.93 90.82 90.78 90.81 90.69 90.56 90.43 90.33 90.15 90.05 89.92 89.83 89.71 89.61 89.55 89.44 89.33 89.23 89.14 89.03 89 88.9 88.86 88.77 88.55 88.59 88.57 88.44 88.39 88.19 87.91 87.94 87.88 87.81 87.76 87.72 87.67 87.63 87.6 87.53 87.51 87.41 87.41 87.36 87.31 87.24 87.19 87.13 87.06 87.01 86.9 86.755 86.7 86.59 86.52 86.44 86.35 86.26 86.16 86.06 85.96 85.81 85.65 85.44 85.23 85.06 84.91 84.8 84.53 84.42 84.22 84.06 83.82 83.72 83.69 83.65 83.62 83.66 83.62 83.67 83.78 83.82 83.94 84.03 84.15 84.3 84.44 84.61 84.83 85.05 85.22 85.49 85.73 86.01 86.28 86.6 86.93 87.3 87.62 87.98 88.34 88.69 89.03 89.34 89.62 89.87 90.09 90.24 90.36 90.47 90.52 90.62 90.67 90.73 90.78 90.76 90.81 90.8 90.85 -9999 -9999 -9999 -9999 -9999 -9999 -9999 -9999 -9999 -9999 -9999 -9999 -9999 -9999 -9999 -9999 -9999 -9999 -9999 -9999 -9999 -9999 -9999 -9999 -9999 -9999 -9999 -9999 -9999 -9999 -9999 -9999 -9999 -9999 -9999 -9999 -9999 -9999 -9999 -9999 -9999 -9999 -9999 -9999 -9999 -9999 -9999 -9999 -9999 -9999 -9999 -9999 -9999 -9999 -9999 -9999 -9999 -9999 -9999 -9999 -9999 -9999 -9999 -9999 -9999 -9999 -9999 -9999 -9999 -9999 -9999 -9999 -9999 -9999 -9999 -9999 -9999 -9999 -9999 -9999 -9999 -9999 -9999 -9999 -9999 -9999 -9999 -9999 -9999 -9999 -9999 -9999 -9999 -9999 -9999 -9999 -9999 -9999 -9999 -9999
-9999 -9999 -9999 -9999 -9999 -9999 -9999 -9999 -9999 -9999 -9999 -9999 -9999 -9999 -9999 -9999 -9999 -9999 -9999 -9999 -9999 -9999 -9999 -9999 -9999 -9999 -9999 -9999 -9999 -9999 -9999 -9999 -9999 -9999 -9999 -9999 -9999 -9999 -9999 -9999 -9999 -9999 -9999 -9999 -9999 -9999 -9999 -9999 -9999 -9999 -9999 -9999 -9999 -9999 -9999 -9999 -9999 -9999 -9999 -9999 -9999 -9999 -9999 -9999 -9999 -9999 -9999 -9999 -9999 -9999 -9999 -9999 -9999 -9999 -9999 -9999 -9999 -9999 -9999 -9999 -9999 -9999 -9999 -9999 -9999 -9999 -9999 -9999 -9999 -9999 -9999 -9999 101.6 101.52 101.5 101.44 101.39 101.37 101.3 101.19 101.15 101 100.76 100.66 100.57 100.43 100.26 100.14 100.03 99.96 99.8 99.65 99.5 99.28 99.1 98.96 98.71 98.67 98.54 98.43 98.38 98.28 98.1 97.94 97.78 97.66 97.48 97.36 97.22 97.04 96.86 96.8 96.81 96.73 96.5 96.36 96.2 95.965 95.88 95.77 95.57 95.4 95.2 95.07 94.98 94.89 94.84 94.69 94.53 94.36 94.15 94.04 93.94 93.84 93.6 93.5 93.41 93.23 93.12 92.98 92.83 92.71 92.63 92.44 92.4 92.31 92.17 92.17 92.22 92.09 92.03 91.97 91.93 91.83 91.76 91.69 91.61 91.52 91.44 91.41 91.39 91.29 91.17 91.1 91.01 90.96 90.94 90.79 90.75 90.73 90.68 90.54 90.43 90.28 90.14 90.05 89.92 89.79 89.7 89.64 89.54 89.44 89.35 89.27 89.16 89.05 88.99 88.92 88.87 88.74 88.63 88.61 88.56 88.45 88.43 88.27 88.08 87.98 87.93 87.82 87.83 87.72 87.68 87.62 87.61 87.54 87.48 87.43 87.42 87.36 87.31 87.28 87.2 87.14 87.07 87.01 86.9 86.755 86.71 86.63 86.51 86.41 86.34 86.24 86.14 86.02 85.88 85.75 85.59 85.37 85.18 85.02 84.87 84.6 84.72 84.42 84.13 83.92 83.83 83.74 83.72 83.68 83.69 83.71 83.75 83.78 83.88 83.97 84.06 84.19 84.28 84.44 84.61 84.75 84.93 85.15 85.36 85.6 85.85 86.09 86.37 86.67 87 87.32 87.69 88.07 88.44 88.81 89.13 89.45 89.78 90.01 90.22 90.37 90.48 90.56 90.63 90.69 90.72 90.76 90.79 90.84 90.83 90.85 90.86 -9999 -9999 -9999 -9999 -9999 -9999 -9999 -9999 -9999 -9999 -9999 -9999 -9999 -9999 -9999 -9999 -9999 -9999 -9999 -9999 -9999 -9999 -9999 -9999 -9999 -9999 -9999 -9999 -9999 -9999 -9999 -9999 -9999 -9999 -9999 -9999 -9999 -9999 -9999 -9999 -9999 -9999 -9999 -9999 -9999 -9999 -9999 -9999 -9999 -9999 -9999 -9999 -9999 -9999 -9999 -9999 -9999 -9999 -9999 -9999 -9999 -9999 -9999 -9999 -9999 -9999 -9999 -9999 -9999 -9999 -9999 -9999 -9999 -9999 -9999 -9999 -9999 -9999 -9999 -9999 -9999 -9999 -9999 -9999 -9999 -9999 -9999 -9999 -9999 -9999 -9999 -9999 -9999 -9999 -9999 -9999 -9999 -9999 -9999 -9999
-9999 -9999 -9999 -9999 -9999 -9999 -9999 -9999 -9999 -9999 -9999 -9999 -9999 -9999 -9999 -9999 -9999 -9999 -9999 -9999 -9999 -9999 -9999 -9999 -9999 -9999 -9999 -9999 -9999 -9999 -9999 -9999 -9999 -9999 -9999 -9999 -9999 -9999 -9999 -9999 -9999 -9999 -9999 -9999 -9999 -9999 -9999 -9999 -9999 -9999 -9999 -9999 -9999 -9999 -9999 -9999 -9999 -9999 -9999 -9999 -9999 -9999 -9999 -9999 -9999 -9999 -9999 -9999 -9999 -9999 -9999 -9999 -9999 -9999 -9999 -9999 -9999 -9999 -9999 -9999 -9999 -9999 -9999 -9999 -9999 -9999 -9999 -9999 -9999 -9999 -9999 101.6 101.63 101.6 101.53 101.47 101.44 101.37 101.31 101.19 101.12 100.88 100.75 100.62 100.51 100.37 100.22 100.08 100.02 99.88 99.75 99.56 99.41 99.23 99.04 98.98 98.81 98.65 98.59 98.51 98.35 98.24 97.99 97.85 97.64 97.43 97.3 97.14 97.06 96.89 96.82 96.95 96.88 96.7 96.36 96.23 96.03 95.83 95.77 95.57 95.46 95.4 95.35 95.27 95.1 94.95 94.82 94.64 94.5 94.15 94.24 94.12 93.9 93.68 93.64 93.48 93.33 93.28 93.08 92.92 92.87 92.76 92.62 92.56 92.44 92.33 92.16 92.15 92.03 91.98 91.89 91.9 91.85 91.79 91.72 91.67 91.58 91.52 91.43 91.42 91.33 91.25 91.21 91.1 90.98 90.89 90.86 90.76 90.81 90.57 90.58 90.49 90.39 90.24 90.13 90.02 89.9 89.81 89.7 89.65 89.54 89.46 89.36 89.25 89.17 89.14 89.01 88.98 88.88 88.85 88.69 88.48 88.44 88.53 88.44 88.23 88.07 88 87.92 87.87 87.84 87.77 87.71 87.65 87.61 87.54 87.48 87.43 87.39 87.31 87.26 87.2 87.16 87.11 87.06 87.03 86.9 86.75 86.71 86.61 86.52 86.43 86.33 86.22 86.11 85.98 85.84 85.68 85.47 85.3 85.11 84.94 84.8 84.56 84.46 84.35 84.15 83.92 83.83 83.75 83.75 83.75 83.77 83.8 83.87 83.91 83.99 84.11 84.2 84.38 84.48 84.6 84.79 84.92 85.09 85.3 85.52 85.69 85.94 86.18 86.46 86.73 87.04 87.43 87.76 88.12 88.51 88.85 89.25 89.57 89.87 90.11 90.33 90.47 90.59 90.64 90.68 90.79 90.78 90.87 90.84 90.85 90.86 90.9 90.92 -9999 -9999 -9999 -9999 -9999 -9999 -9999 -9999 -9999 -9999 -9999 -9999 -9999 -9999 -9999 -9999 -9999 -9999 -9999 -9999 -9999 -9999 -9999 -9999 -9999 -9999 -9999 -9999 -9999 -9999 -9999 -9999 -9999 -9999 -9999 -9999 -9999 -9999 -9999 -9999 -9999 -9999 -9999 -9999 -9999 -9999 -9999 -9999 -9999 -9999 -9999 -9999 -9999 -9999 -9999 -9999 -9999 -9999 -9999 -9999 -9999 -9999 -9999 -9999 -9999 -9999 -9999 -9999 -9999 -9999 -9999 -9999 -9999 -9999 -9999 -9999 -9999 -9999 -9999 -9999 -9999 -9999 -9999 -9999 -9999 -9999 -9999 -9999 -9999 -9999 -9999 -9999 -9999 -9999 -9999 -9999 -9999 -9999 -9999 -9999
-9999 -9999 -9999 -9999 -9999 -9999 -9999 -9999 -9999 -9999 -9999 -9999 -9999 -9999 -9999 -9999 -9999 -9999 -9999 -9999 -9999 -9999 -9999 -9999 -9999 -9999 -9999 -9999 -9999 -9999 -9999 -9999 -9999 -9999 -9999 -9999 -9999 -9999 -9999 -9999 -9999 -9999 -9999 -9999 -9999 -9999 -9999 -9999 -9999 -9999 -9999 -9999 -9999 -9999 -9999 -9999 -9999 -9999 -9999 -9999 -9999 -9999 -9999 -9999 -9999 -9999 -9999 -9999 -9999 -9999 -9999 -9999 -9999 -9999 -9999 -9999 -9999 -9999 -9999 -9999 -9999 -9999 -9999 -9999 -9999 -9999 -9999 -9999 -9999 -9999 -9999 -9999 101.66 101.62 101.58 101.53 101.44 101.45 101.36 101.23 101.1 100.86 100.72 100.57 100.49 100.27 100.18 100.08 99.96 99.77 99.7 99.53 99.31 99.13 99.02 98.82 98.61 98.5 98.38 98.29 98.15 98.01 97.84 97.73 97.58 97.53 97.35 97.3 97.2 96.91 96.79 96.81 96.64 96.49 96.39 96.28 96.23 95.95 95.86 95.71 95.62 95.49 95.38 95.19 95.08 94.99 94.75 94.69 94.47 94.35 94.28 94.05 93.85 93.75 93.63 93.46 93.31 93.2 93.06 92.91 92.86 92.78 92.63 92.55 92.46 92.32 92.26 92.17 91.97 91.97 91.89 91.75 91.73 91.74 91.66 91.61 91.52 91.51 91.44 91.39 91.35 91.27 91.16 91.05 91 90.9 90.82 90.74 90.87 90.69 90.55 90.43 90.31 90.17 90.08 89.98 89.88 89.79 89.72 89.63 89.55 89.46 89.37 89.29 89.21 89.17 89.03 88.98 88.92 88.8 88.72 88.44 88.27 88.26 88.31 88.2 88.14 88.05 87.98 87.91 87.85 87.8 87.74 87.68 87.6 87.52 87.47 87.42 87.34 87.26 87.24 87.18 87.14 87.07 87.02 86.97 86.87 86.75 86.7 86.6 86.48 86.42 86.31 86.22 86.09 85.92 85.77 85.6 85.39 85.2 85.09 84.91 84.68 84.54 84.48 84.37 84.16 84.01 83.87 83.85 83.8 83.85 83.92 83.88 83.96 84.04 84.14 84.25 84.37 84.59 84.73 84.87 84.99 85.14 85.29 85.44 85.64 85.85 86.1 86.3 86.59 86.85 87.16 87.49 87.86 88.21 88.59 88.9 89.28 89.61 89.94 90.21 90.42 90.51 90.65 90.7 90.79 90.84 90.89 90.93 90.94 90.91 90.95 90.94 90.96 -9999 -9999 -9999 -9999 -9999 -9999 -9999 -9999 -9999 -9999 -9999 -9999 -9999 -9999 -9999 -9999 -9999 -9999 -9999 -9999 -9999 -9999 -9999 -9999 -9999 -9999 -9999 -9999 -9999 -9999 -9999 -9999 -9999 -9999 -9999 -9999 -9999 -9999 -9999 -9999 -9999 -9999 -9999 -9999 -9999 -9999 -9999 -9999 -9999 -9999 -9999 -9999 -9999 -9999 -9999 -9999 -9999 -9999 -9999 -9999 -9999 -9999 -9999 -9999 -9999 -9999 -9999 -9999 -9999 -9999 -9999 -9999 -9999 -9999 -9999 -9999 -9999 -9999 -9999 -9999 -9999 -9999 -9999 -9999 -9999 -9999 -9999 -9999 -9999 -9999 -9999 -9999 -9999 -9999 -9999 -9999 -9999 -9999 -9999 -9999
-9999 -9999 -9999 -9999 -9999 -9999 -9999 -9999 -9999 -9999 -9999 -9999 -9999 -9999 -9999 -9999 -9999 -9999 -9999 -9999 -9999 -9999 -9999 -9999 -9999 -9999 -9999 -9999 -9999 -9999 -9999 -9999 -9999 -9999 -9999 -9999 -9999 -9999 -9999 -9999 -9999 -9999 -9999 -9999 -9999 -9999 -9999 -9999 -9999 -9999 -9999 -9999 -9999 -9999 -9999 -9999 -9999 -9999 -9999 -9999 -9999 -9999 -9999 -9999 -9999 -9999 -9999 -9999 -9999 -9999 -9999 -9999 -9999 -9999 -9999 -9999 -9999 -9999 -9999 -9999 -9999 -9999 -9999 -9999 -9999 -9999 -9999 -9999 -9999 -9999 -9999 -9999 101.73 101.7 101.65 101.56 101.56 101.48 101.34 101.22 101.02 100.83 100.72 100.59 100.41 100.27 100.12 100.02 99.91 99.8 99.63 99.41 99.23 99.03 98.87 98.72 98.67 98.53 98.47 98.31 98.23 98.11 97.95 97.76 97.63 97.47 97.35 97.23 96.88 96.87 96.96 96.87 96.73 96.57 96.44 96.24 96.09 95.89 95.78 95.61 95.47 95.29 95.21 95.14 95.01 94.89 94.74 94.63 94.44 94.32 94.23 94.05 93.91 93.79 93.61 93.49 93.33 93.2 93.08 92.92 92.8 92.81 92.63 92.58 92.55 92.37 92.28 92.18 92.09 91.98 91.88 91.75 91.75 91.66 91.6 91.53 91.61 91.52 91.46 91.38 91.25 91.17 91.07 91.03 90.91 90.9 90.79 90.76 90.74 90.5 90.52 90.38 90.26 90.15 90.02 89.93 89.86 89.76 89.7 89.63 89.54 89.46 89.38 89.3 89.29 89.2 89.14 89.06 88.96 88.82 88.71 88.52 88.41 88.3 88.23 88.3 88.15 88.01 87.98 87.93 87.85 87.81 87.76 87.69 87.63 87.52 87.46 87.39 87.3 87.21 87.17 87.15 87.08 87.05 87.01 86.95 86.87 86.745 86.68 86.58 86.51 86.41 86.28 86.17 86.04 85.91 85.7 85.5 85.32 85.13 85 84.87 84.6 84.57 84.32 84.14 84.12 84.04 83.97 83.95 83.97 83.97 84 84.01 84.05 84.11 84.22 84.35 84.55 84.73 84.93 85.09 85.23 85.38 85.48 85.63 85.84 86 86.25 86.46 86.7 86.99 87.27 87.62 87.95 88.3 88.63 89 89.34 89.7 89.97 90.2 90.44 90.6 90.73 90.79 90.83 90.89 90.94 90.97 90.99 90.92 90.99 91.03 90.99 -9999 -9999 -9999 -9999 -9999 -9999 -9999 -9999 -9999 -9999 -9999 -9999 -9999 -9999 -9999 -9999 -9999 -9999 -9999 -9999 -9999 -9999 -9999 -9999 -9999 -9999 -9999 -9999 -9999 -9999 -9999 -9999 -9999 -9999 -9999 -9999 -9999 -9999 -9999 -9999 -9999 -9999 -9999 -9999 -9999 -9999 -9999 -9999 -9999 -9999 -9999 -9999 -9999 -9999 -9999 -9999 -9999 -9999 -9999 -9999 -9999 -9999 -9999 -9999 -9999 -9999 -9999 -9999 -9999 -9999 -9999 -9999 -9999 -9999 -9999 -9999 -9999 -9999 -9999 -9999 -9999 -9999 -9999 -9999 -9999 -9999 -9999 -9999 -9999 -9999 -9999 -9999 -9999 -9999 -9999 -9999 -9999 -9999 -9999 -9999
-9999 -9999 -9999 -9999 -9999 -9999 -9999 -9999 -9999 -9999 -9999 -9999 -9999 -9999 -9999 -9999 -9999 -9999 -9999 -9999 -9999 -9999 -9999 -9999 -9999 -9999 -9999 -9999 -9999 -9999 -9999 -9999 -9999 -9999 -9999 -9999 -9999 -9999 -9999 -9999 -9999 -9999 -9999 -9999 -9999 -9999 -9999 -9999 -9999 -9999 -9999 -9999 -9999 -9999 -9999 -9999 -9999 -9999 -9999 -9999 -9999 -9999 -9999 -9999 -9999 -9999 -9999 -9999 -9999 -9999 -9999 -9999 -9999 -9999 -9999 -9999 -9999 -9999 -9999 -9999 -9999 -9999 -9999 -9999 -9999 -9999 -9999 -9999 -9999 -9999 -9999 -9999 101.83 101.78 101.75 101.69 101.66 101.51 101.35 101.21 100.96 100.86 100.7 100.51 100.35 100.2 100.08 100 99.86 99.75 99.58 99.35 99.16 98.98 98.93 98.77 98.64 98.58 98.44 98.25 98.09 97.97 97.77 97.64 97.51 97.28 97.24 97.06 96.95 97.02 97 96.84 96.63 96.4 96.24 96.11 95.96 95.765 95.66 95.65 95.57 95.43 95.4 95.21 94.98 94.87 94.69 94.56 94.42 94.35 94.14 94.07 93.89 93.75 93.65 93.54 93.44 93.28 93.07 92.95 92.86 92.79 92.73 92.64 92.38 92.38 92.32 92.25 92.15 92 91.89 91.84 91.78 91.62 91.6 91.53 91.41 91.4 91.51 91.46 91.28 91.09 91.02 90.95 90.88 90.85 90.75 90.81 90.69 90.55 90.46 90.32 90.21 90.08 89.98 89.9 89.82 89.76 89.69 89.63 89.52 89.48 89.42 89.37 89.33 89.2 89.15 89.08 89 88.83 88.57 88.58 88.41 88.31 88.27 88.24 88.13 88.08 87.99 87.95 87.9 87.83 87.79 87.72 87.66 87.55 87.47 87.39 87.32 87.24 87.15 87.14 87.05 87.01 86.93 86.87 86.81 86.695 86.64 86.56 86.47 86.34 86.25 86.12 85.97 85.8 85.58 85.4 85.29 85.08 84.99 84.81 84.6 84.54 84.36 84.11 84.16 83.95 84.06 84.07 84.12 84.14 84.2 84.14 84.21 84.31 84.39 84.51 84.7 84.89 85.12 85.26 85.44 85.58 85.7 85.82 85.99 86.17 86.37 86.58 86.86 87.13 87.44 87.75 88.08 88.38 88.74 89.05 89.39 89.72 90.04 90.29 90.47 90.62 90.7 90.79 90.89 90.97 91.02 91 91 91.04 91.06 91.08 91.02 -9999 -9999 -9999 -9999 -9999 -9999 -9999 -9999 -9999 -9999 -9999 -9999 -9999 -9999 -9999 -9999 -9999 -9999 -9999 -9999 -9999 -9999 -9999 -9999 -9999 -9999 -9999 -9999 -9999 -9999 -9999 -9999 -9999 -9999 -9999 -9999 -9999 -9999 -9999 -9999 -9999 -9999 -9999 -9999 -9999 -9999 -9999 -9999 -9999 -9999 -9999 -9999 -9999 -9999 -9999 -9999 -9999 -9999 -9999 -9999 -9999 -9999 -9999 -9999 -9999 -9999 -9999 -9999 -9999 -9999 -9999 -9999 -9999 -9999 -9999 -9999 -9999 -9999 -9999 -9999 -9999 -9999 -9999 -9999 -9999 -9999 -9999 -9999 -9999 -9999 -9999 -9999 -9999 -9999 -9999 -9999 -9999 -9999 -9999 -9999
-9999 -9999 -9999 -9999 -9999 -9999 -9999 -9999 -9999 -9999 -9999 -9999 -9999 -9999 -9999 -9999 -9999 -9999 -9999 -9999 -9999 -9999 -9999 -9999 -9999 -9999 -9999 -9999 -9999 -9999 -9999 -9999 -9999 -9999 -9999 -9999 -9999 -9999 -9999 -9999 -9999 -9999 -9999 -9999 -9999 -9999 -9999 -9999 -9999 -9999 -9999 -9999 -9999 -9999 -9999 -9999 -9999 -9999 -9999 -9999 -9999 -9999 -9999 -9999 -9999 -9999 -9999 -9999 -9999 -9999 -9999 -9999 -9999 -9999 -9999 -9999 -9999 -9999 -9999 -9999 -9999 -9999 -9999 -9999 -9999 -9999 -9999 -9999 -9999 -9999 -9999 101.96 101.91 101.9 101.86 101.75 101.67 101.52 101.38 101.16 100.98 100.84 100.66 100.49 100.27 100.16 100.06 99.92 99.85 99.72 99.48 99.34 99.14 98.98 98.74 98.58 98.49 98.31 98.2 98.02 97.96 97.83 97.69 97.71 97.59 97.47 97.39 97.09 96.98 96.91 96.88 96.61 96.55 96.52 96.38 96.26 96.07 95.845 95.8 95.63 95.51 95.37 95.21 95.14 94.95 94.83 94.61 94.5 94.4 94.27 94.12 93.98 93.86 93.75 93.66 93.51 93.44 93.28 93.15 93 92.93 92.85 92.78 92.63 92.5 92.39 92.27 92.13 92.17 92.07 91.95 91.83 91.69 91.64 91.57 91.46 91.39 91.38 91.27 91.25 91.19 91.07 91 90.97 90.95 90.78 90.75 90.88 90.68 90.53 90.31 90.2 90.21 90.07 89.95 89.85 89.77 89.73 89.67 89.6 89.52 89.49 89.42 89.38 89.32 89.24 89.22 89.07 89.01 88.91 88.73 88.59 88.47 88.37 88.32 88.24 88.13 88.06 88.04 87.95 87.91 87.86 87.82 87.75 87.65 87.57 87.5 87.39 87.3 87.22 87.18 87.11 87.03 86.98 86.89 86.84 86.77 86.68 86.65 86.52 86.43 86.29 86.21 86.05 85.92 85.74 85.54 85.35 85.17 85.05 84.98 84.7 84.7 84.47 84.33 84.26 84.23 84.22 84.19 84.01 84.18 84.25 84.31 84.33 84.39 84.43 84.56 84.7 84.88 85.05 85.26 85.4 85.57 85.75 85.86 86.03 86.18 86.33 86.54 86.76 86.99 87.28 87.59 87.91 88.22 88.52 88.84 89.16 89.48 89.83 90.12 90.33 90.52 90.68 90.74 90.9 90.92 90.96 91.04 91.05 91.03 91.12 91.11 91.13 -9999 -9999 -9999 -9999 -9999 -9999 -9999 -9999 -9999 -9999 -9999 -9999 -9999 -9999 -9999 -9999 -9999 -9999 -9999 -9999 -9999 -9999 -9999 -9999 -9999 -9999 -9999 -9999 -9999 -9999 -9999 -9999 -9999 -9999 -9999 -9999 -9999 -9999 -9999 -9999 -9999 -9999 -9999 -9999 -9999 -9999 -9999 -9999 -9999 -9999 -9999 -9999 -9999 -9999 -9999 -9999 -9999 -9999 -9999 -9999 -9999 -9999 -9999 -9999 -9999 -9999 -9999 -9999 -9999 -9999 -9999 -9999 -9999 -9999 -9999 -9999 -9999 -9999 -9999 -9999 -9999 -9999 -9999 -9999 -9999 -9999 -9999 -9999 -9999 -9999 -9999 -9999 -9999 -9999 -9999 -9999 -9999 -9999 -9999 -9999 -9999
-9999 -9999 -9999 -9999 -9999 -9999 -9999 -9999 -9999 -9999 -9999 -9999 -9999 -9999 -9999 -9999 -9999 -9999 -9999 -9999 -9999 -9999 -9999 -9999 -9999 -9999 -9999 -9999 -9999 -9999 -9999 -9999 -9999 -9999 -9999 -9999 -9999 -9999 -9999 -9999 -9999 -9999 -9999 -9999 -9999 -9999 -9999 -9999 -9999 -9999 -9999 -9999 -9999 -9999 -9999 -9999 -9999 -9999 -9999 -9999 -9999 -9999 -9999 -9999 -9999 -9999 -9999 -9999 -9999 -9999 -9999 -9999 -9999 -9999 -9999 -9999 -9999 -9999 -9999 -9999 -9999 -9999 -9999 -9999 -9999 -9999 -9999 -9999 -9999 -9999 -9999 102.09 102.07 102.01 101.92 101.84 101.69 101.52 101.39 101.13 101 100.83 100.64 100.43 100.27 100.15 100.03 99.98 99.86 99.68 99.53 99.31 98.94 98.92 98.79 98.61 98.53 98.39 98.32 98.16 98.03 97.87 97.79 97.61 97.55 97.43 97.17 97.08 97.03 97.03 96.91 96.78 96.65 96.46 96.27 96.17 95.95 95.7 95.59 95.43 95.38 95.32 95.15 95.08 94.85 94.84 94.62 94.5 94.41 94.25 94.12 93.99 93.87 93.76 93.63 93.52 93.45 93.3 93.16 93.06 92.99 92.91 92.86 92.69 92.55 92.43 92.3 92.25 92.14 92.04 91.97 91.78 91.71 91.66 91.52 91.41 91.35 91.31 91.16 91.18 91.15 91 90.98 91 90.9 90.9 90.84 90.83 90.63 90.54 90.38 90.32 90.07 89.94 89.92 89.82 89.74 89.7 89.63 89.56 89.5 89.48 89.4 89.39 89.3 89.25 89.25 89.18 89 88.75 88.74 88.58 88.47 88.43 88.3 88.23 88.17 88.11 88.03 87.99 87.94 87.89 87.81 87.75 87.65 87.56 87.47 87.38 87.33 87.29 87.19 87.11 87.02 86.96 86.87 86.79 86.75 86.625 86.59 86.46 86.36 86.23 86.12 85.98 85.84 85.64 85.45 85.25 85.14 85.02 84.85 84.64 84.63 84.45 84.25 84.15 84.17 84.28 84.36 84.32 84.34 84.33 84.31 84.44 84.52 84.67 84.79 84.92 85.04 85.24 85.39 85.56 85.72 85.89 86.01 86.2 86.33 86.52 86.73 86.94 87.22 87.49 87.78 88.07 88.37 88.69 88.99 89.29 89.63 89.9 90.23 90.43 90.63 90.73 90.84 90.94 91 91.04 91.03 91.06 91.11 91.18 91.17 91.16 -9999 -9999 -9999 -9999 -9999 -9999 -9999 -9999 -9999 -9999 -9999 -9999 -9999 -9999 -9999 -9999 -9999 -9999 -9999 -9999 -9999 -9999 -9999 -9999 -9999 -9999 -9999 -9999 -9999 -9999 -9999 -9999 -9999 -9999 -9999 -9999 -9999 -9999 -9999 -9999 -9999 -9999 -9999 -9999 -9999 -9999 -9999 -9999 -9999 -9999 -9999 -9999 -9999 -9999 -9999 -9999 -9999 -9999 -9999 -9999 -9999 -9999 -9999 -9999 -9999 -9999 -9999 -9999 -9999 -9999 -9999 -9999 -9999 -9999 -9999 -9999 -9999 -9999 -9999 -9999 -9999 -9999 -9999 -9999 -9999 -9999 -9999 -9999 -9999 -9999 -9999 -9999 -9999 -9999 -9999 -9999 -9999 -9999 -9999 -9999 -9999
-9999 -9999 -9999 -9999 -9999 -9999 -9999 -9999 -9999 -9999 -9999 -9999 -9999 -9999 -9999 -9999 -9999 -9999 -9999 -9999 -9999 -9999 -9999 -9999 -9999 -9999 -9999 -9999 -9999 -9999 -9999 -9999 -9999 -9999 -9999 -9999 -9999 -9999 -9999 -9999 -9999 -9999 -9999 -9999 -9999 -9999 -9999 -9999 -9999 -9999 -9999 -9999 -9999 -9999 -9999 -9999 -9999 -9999 -9999 -9999 -9999 -9999 -9999 -9999 -9999 -9999 -9999 -9999 -9999 -9999 -9999 -9999 -9999 -9999 -9999 -9999 -9999 -9999 -9999 -9999 -9999 -9999 -9999 -9999 -9999 -9999 -9999 -9999 -9999 -9999 102.21 102.18 102.13 102.05 102.01 101.89 101.75 101.6 101.35 101.16 101 100.81 100.58 100.42 100.25 100.15 100.02 99.98 99.9 99.71 99.52 99.32 99.18 98.98 98.75 98.7 98.53 98.41 98.18 98 97.81 97.75 97.55 97.46 97.29 97.18 97.09 97.06 97.11 97.01 96.86 96.61 96.44 96.31 96.18 96 95.86 95.77499 95.74 95.62 95.51 95.37 95.09 95.09 94.85 94.77 94.55 94.49 94.33 94.19 94.12 93.98 93.85 93.75 93.62 93.56 93.41 93.29 93.17 93.11 93.04 92.96 92.85 92.68 92.61 92.47 92.4 92.29 92.17 92.07 91.91 91.83 91.63 91.63 91.6 91.45 91.37 91.27 91.22 91.1 91.07 90.99 90.97 90.87 90.84 90.91 90.87 90.78 90.6 90.43 90.36 90.28 90.18 90.12 89.92 89.72 89.72 89.65 89.63 89.51 89.47 89.41 89.38 89.35 89.28 89.27 89.17 89.16 89.08 88.85 88.75 88.62 88.51 88.41 88.33 88.26 88.18 88.13 88.05 87.98 87.94 87.93 87.83 87.75 87.69 87.6 87.49 87.42 87.29 87.25 87.18 87.11 87.03 86.95 86.86 86.84 86.75 86.605 86.54 86.44 86.31 86.2 86.05 85.9 85.75 85.59 85.4 85.23 85.1 84.99 84.77 84.85 84.59 84.4 84.32 84.27 84.31 84.35 84.4 84.48 84.43 84.4 84.51 84.5 84.59 84.75 84.94 85.12 85.26 85.42 85.52 85.72 85.87 86.02 86.17 86.33 86.49 86.71 86.92 87.13 87.38 87.65 87.95 88.23 88.52 88.83 89.13 89.41 89.77 90.05 90.3 90.52 90.66 90.81 90.89 90.98 91.03 91.11 91.11 91.08 91.14 91.2 91.25 -9999 -9999 -9999 -9999 -9999 -9999 -9999 -9999 -9999 -9999 -9999 -9999 -9999 -9999 -9999 -9999 -9999 -9999 -9999 -9999 -9999 -9999 -9999 -9999 -9999 -9999 -9999 -9999 -9999 -9999 -9999 -9999 -9999 -9999 -9999 -9999 -9999 -9999 -9999 -9999 -9999 -9999 -9999 -9999 -9999 -9999 -9999 -9999 -9999 -9999 -9999 -9999 -9999 -9999 -9999 -9999 -9999 -9999 -9999 -9999 -9999 -9999 -9999 -9999 -9999 -9999 -9999 -9999 -9999 -9999 -9999 -9999 -9999 -9999 -9999 -9999 -9999 -9999 -9999 -9999 -9999 -9999 -9999 -9999 -9999 -9999 -9999 -9999 -9999 -9999 -9999 -9999 -9999 -9999 -9999 -9999 -9999 -9999 -9999 -9999 -9999 -9999
-9999 -9999 -9999 -9999 -9999 -9999 -9999 -9999 -9999 -9999 -9999 -9999 -9999 -9999 -9999 -9999 -9999 -9999 -9999 -9999 -9999 -9999 -9999 -9999 -9999 -9999 -9999 -9999 -9999 -9999 -9999 -9999 -9999 -9999 -9999 -9999 -9999 -9999 -9999 -9999 -9999 -9999 -9999 -9999 -9999 -9999 -9999 -9999 -9999 -9999 -9999 -9999 -9999 -9999 -9999 -9999 -9999 -9999 -9999 -9999 -9999 -9999 -9999 -9999 -9999 -9999 -9999 -9999 -9999 -9999 -9999 -9999 -9999 -9999 -9999 -9999 -9999 -9999 -9999 -9999 -9999 -9999 -9999 -9999 -9999 -9999 -9999 -9999 -9999 -9999 102.22 102.21 102.16 102.11 102.02 101.93 101.78 101.56 101.38 101.2 100.98 100.79 100.58 100.42 100.26 100.13 100.05 100.01 99.87 99.7 99.49 99.33 99.02 98.78 98.61 98.44 98.34 98.16 98.13 97.93 97.83 97.7 97.67 97.54 97.44 97.22 97.06 96.95 96.93 96.77 96.69 96.65 96.57 96.42 96.29 96.12 96 95.795 95.71 95.56 95.39 95.34 95.08 95.01 94.78 94.54 94.55 94.47 94.32 94.19 94.11 93.97 93.84 93.74 93.66 93.53 93.4 93.31 93.2 93.11 93.04 92.96 92.85 92.72 92.62 92.57 92.46 92.4 92.25 92.07 91.99 91.81 91.67 91.61 91.48 91.44 91.39 91.29 91.21 91.12 90.99 90.85 90.78 90.81 90.83 90.72 90.66 90.65 90.54 90.45 90.33 90.22 90.18 90.08 89.94 89.93 89.76 89.55 89.56 89.48 89.42 89.39 89.38 89.33 89.26 89.26 89.2 89.08 88.87 88.82 88.72 88.6 88.53 88.43 88.36 88.28 88.22 88.2 88.11 88.06 87.99 87.92 87.83 87.76 87.68 87.59 87.48 87.41 87.34 87.29 87.18 87.11 87.04 86.96 86.87 86.81 86.72 86.595 86.55 86.42 86.31 86.15 86 85.83 85.66 85.51 85.33 85.21 85.07 84.91 84.69 84.79 84.6 84.41 84.32 84.31 84.35 84.42 84.51 84.54 84.55 84.58 84.69 84.68 84.9 85.07 85.01 85.2 85.4 85.57 85.74 85.87 86 86.16 86.33 86.48 86.69 86.88 87.06 87.3 87.57 87.82 88.12 88.42 88.66 89.01 89.31 89.61 89.92 90.16 90.39 90.57 90.73 90.82 90.93 91.03 91.08 91.13 91.16 91.16 91.21 91.18 91.25 -9999 -9999 -9999 -9999 -9999 -9999 -9999 -9999 -9999 -9999 -9999 -9999 -9999 -9999 -9999 -9999 -9999 -9999 -9999 -9999 -9999 -9999 -9999 -9999 -9999 -9999 -9999 -9999 -9999 -9999 -9999 -9999 -9999 -9999 -9999 -9999 -9999 -9999 -9999 -9999 -9999 -9999 -9999 -9999 -9999 -9999 -9999 -9999 -9999 -9999 -9999 -9999 -9999 -9999 -9999 -9999 -9999 -9999 -9999 -9999 -9999 -9999 -9999 -9999 -9999 -9999 -9999 -9999 -9999 -9999 -9999 -9999 -9999 -9999 -9999 -9999 -9999 -9999 -9999 -9999 -9999 -9999 -9999 -9999 -9999 -9999 -9999 -9999 -9999 -9999 -9999 -9999 -9999 -9999 -9999 -9999 -9999 -9999 -9999 -9999 -9999 -9999
-9999 -9999 -9999 -9999 -9999 -9999 -9999 -9999 -9999 -9999 -9999 -9999 -9999 -9999 -9999 -9999 -9999 -9999 -9999 -9999 -9999 -9999 -9999 -9999 -9999 -9999 -9999 -9999 -9999 -9999 -9999 -9999 -9999 -9999 -9999 -9999 -9999 -9999 -9999 -9999 -9999 -9999 -9999 -9999 -9999 -9999 -9999 -9999 -9999 -9999 -9999 -9999 -9999 -9999 -9999 -9999 -9999 -9999 -9999 -9999 -9999 -9999 -9999 -9999 -9999 -9999 -9999 -9999 -9999 -9999 -9999 -9999 -9999 -9999 -9999 -9999 -9999 -9999 -9999 -9999 -9999 -9999 -9999 -9999 -9999 -9999 -9999 -9999 -9999 102.24 102.21 102.23 102.14 102.16 102.06 101.95 101.78 101.58 101.39 101.19 101.01 100.8 100.59 100.41 100.29 100.13 100.11 100.03 99.89 99.69 99.52 99.2 99.08 98.88 98.67 98.59 98.44 98.31 98.16 98.03 97.9 97.77 97.64 97.48 97.31 97.11 97.06 97.08 97.02 96.88 96.77 96.65 96.52 96.33 96.24 95.93 95.85 95.595 95.52 95.47 95.33 95.3 95.08 95.02 94.74 94.62 94.56 94.42 94.28 94.18 94.06 93.95 93.85 93.75 93.66 93.52 93.37 93.27 93.19 93.15 93.07 92.93 92.81 92.77 92.68 92.61 92.51 92.41 92.29 92.15 92.02 91.88 91.75 91.64 91.59 91.5 91.4 91.3 91.23 91.14 91.04 90.93 90.84 90.65 90.65 90.63 90.64 90.57 90.44 90.42 90.35 90.23 90.14 90.04 89.96 89.89 89.81 89.73 89.64 89.43 89.39 89.44 89.38 89.3 89.24 89.17 89.14 89.06 88.9 88.81 88.74 88.6 88.54 88.48 88.4 88.32 88.26 88.17 88.14 88.08 88.05 87.96 87.88 87.78 87.72 87.62 87.52 87.41 87.32 87.26 87.18 87.11 87.04 86.93 86.92 86.82 86.74 86.58 86.53 86.43 86.3 86.13 85.94 85.8 85.61 85.42 85.29 85.18 85.05 84.84 84.9 84.76 84.59 84.45 84.42 84.43 84.48 84.45 84.59 84.62 84.65 84.73 84.93 84.87 85.17 85.31 85.39 85.54 85.61 85.63 85.83 85.96 86.19 86.3 86.44 86.66 86.84 87.06 87.28 87.49 87.78 88.02 88.3 88.56 88.84 89.15 89.45 89.8 90.09 90.29 90.49 90.65 90.76 90.88 90.97 91.05 91.13 91.19 91.16 91.22 91.29 91.31 91.27 -9999 -9999 -9999 -9999 -9999 -9999 -9999 -9999 -9999 -9999 -9999 -9999 -9999 -9999 -9999 -9999 -9999 -9999 -9999 -9999 -9999 -9999 -9999 -9999 -9999 -9999 -9999 -9999 -9999 -9999 -9999 -9999 -9999 -9999 -9999 -9999 -9999 -9999 -9999 -9999 -9999 -9999 -9999 -9999 -9999 -9999 -9999 -9999 -9999 -9999 -9999 -9999 -9999 -9999 -9999 -9999 -9999 -9999 -9999 -9999 -9999 -9999 -9999 -9999 -9999 -9999 -9999 -9999 -9999 -9999 -9999 -9999 -9999 -9999 -9999 -9999 -9999 -9999 -9999 -9999 -9999 -9999 -9999 -9999 -9999 -9999 -9999 -9999 -9999 -9999 -9999 -9999 -9999 -9999 -9999 -9999 -9999 -9999 -9999 -9999 -9999 -9999
-9999 -9999 -9999 -9999 -9999 -9999 -9999 -9999 -9999 -9999 -9999 -9999 -9999 -9999 -9999 -9999 -9999 -9999 -9999 -9999 -9999 -9999 -9999 -9999 -9999 -9999 -9999 -9999 -9999 -9999 -9999 -9999 -9999 -9999 -9999 -9999 -9999 -9999 -9999 -9999 -9999 -9999 -9999 -9999 -9999 -9999 -9999 -9999 -9999 -9999 -9999 -9999 -9999 -9999 -9999 -9999 -9999 -9999 -9999 -9999 -9999 -9999 -9999 -9999 -9999 -9999 -9999 -9999 -9999 -9999 -9999 -9999 -9999 -9999 -9999 -9999 -9999 -9999 -9999 -9999 -9999 -9999 -9999 -9999 -9999 -9999 -9999 -9999 -9999 -9999 102.21 102.11 102.14 102.13 102.03 101.93 101.78 101.58 101.42 101.24 101.01 100.78 100.6 100.39 100.29 100.18 100.11 100.03 99.83 99.65 99.52 99.25 99.03 98.89 98.72 98.54 98.41 98.15 98.03 97.83 97.74 97.61 97.45 97.31 97.2 97.1 97.19 97.1 97 96.77 96.68 96.47 96.38 96.24 96.09 95.95 95.9 95.755 95.71 95.56 95.31 95.27 95.03 94.97 94.68 94.65 94.55 94.41 94.29 94.18 94.06 93.99 93.81 93.72 93.64 93.51 93.39 93.3 93.2 93.15 93.06 92.96 92.85 92.77 92.69 92.63 92.57 92.45 92.31 92.17 92.08 91.96 91.89 91.78 91.68 91.59 91.45 91.34 91.3 91.1 91.11 91.01 90.95 90.76 90.65 90.48 90.34 90.4 90.42 90.39 90.25 90.22 90.13 90.06 89.98 89.9 89.75 89.74 89.66 89.6 89.45 89.48 89.4 89.31 89.24 89.24 89.11 89.02 88.86 88.78 88.66 88.63 88.54 88.46 88.4 88.32 88.27 88.21 88.13 88.09 88.05 87.95 87.86 87.8 87.72 87.61 87.5 87.42 87.34 87.27 87.18 87.14 87.06 86.95 86.9 86.82 86.74 86.59 86.54 86.41 86.25 86.12 85.94 85.74 85.59 85.44 85.27 85.12 85 84.84 84.99 84.73 84.55 84.47 84.5 84.56 84.55 84.6 84.72 84.73 84.73 84.83 85.01 85.13 85.35 85.46 85.53 85.68 85.78 85.9 86.1 85.98 86.21 86.37 86.59 86.8 87.03 87.24 87.49 87.72 87.92 88.19 88.45 88.71 88.98 89.35 89.62 89.94 90.19 90.45 90.6 90.73 90.85 90.92 91.03 91.09 91.14 91.21 91.21 91.27 91.37 91.37 -9999 -9999 -9999 -9999 -9999 -9999 -9999 -9999 -9999 -9999 -9999 -9999 -9999 -9999 -9999 -9999 -9999 -9999 -9999 -9999 -9999 -9999 -9999 -9999 -9999 -9999 -9999 -9999 -9999 -9999 -9999 -9999 -9999 -9999 -9999 -9999 -9999 -9999 -9999 -9999 -9999 -9999 -9999 -9999 -9999 -9999 -9999 -9999 -9999 -9999 -9999 -9999 -9999 -9999 -9999 -9999 -9999 -9999 -9999 -9999 -9999 -9999 -9999 -9999 -9999 -9999 -9999 -9999 -9999 -9999 -9999 -9999 -9999 -9999 -9999 -9999 -9999 -9999 -9999 -9999 -9999 -9999 -9999 -9999 -9999 -9999 -9999 -9999 -9999 -9999 -9999 -9999 -9999 -9999 -9999 -9999 -9999 -9999 -9999 -9999 -9999 -9999 -9999
-9999 -9999 -9999 -9999 -9999 -9999 -9999 -9999 -9999 -9999 -9999 -9999 -9999 -9999 -9999 -9999 -9999 -9999 -9999 -9999 -9999 -9999 -9999 -9999 -9999 -9999 -9999 -9999 -9999 -9999 -9999 -9999 -9999 -9999 -9999 -9999 -9999 -9999 -9999 -9999 -9999 -9999 -9999 -9999 -9999 -9999 -9999 -9999 -9999 -9999 -9999 -9999 -9999 -9999 -9999 -9999 -9999 -9999 -9999 -9999 -9999 -9999 -9999 -9999 -9999 -9999 -9999 -9999 -9999 -9999 -9999 -9999 -9999 -9999 -9999 -9999 -9999 -9999 -9999 -9999 -9999 -9999 -9999 -9999 -9999 -9999 -9999 -9999 -9999 -9999 102.15 102.13 102.13 102.06 101.98 101.87 101.7 101.59 101.41 101.19 101.01 100.79 100.59 100.47 100.31 100.24 100.14 99.99 99.79 99.61 99.26 99.02 98.79 98.61 98.53 98.42 98.28 98.12 98.11 97.94 97.92 97.71 97.65 97.48 97.18 97.13 97.03 96.92 96.78 96.69 96.65 96.57 96.46 96.27 96.18 96.02 95.82 95.7 95.6 95.5 95.32 95.21 95.02 94.89 94.74 94.7 94.5 94.38 94.27 94.15 94.05 93.95 93.88 93.78 93.6 93.48 93.39 93.28 93.24 93.14 93.01 92.95 92.88 92.85 92.74 92.67 92.58 92.46 92.32 92.23 92.12 92.01 91.95 91.86 91.75 91.64 91.49 91.45 91.26 91.18 91.07 91.02 90.94 90.74 90.79 90.69 90.46 90.32 90.11 90.05 90.25 90.22 90.12 90.05 90.02 89.89 89.82 89.74 89.67 89.54 89.48 89.42 89.34 89.31 89.22 89.14 89.07 88.9 88.78 88.7 88.66 88.57 88.54 88.48 88.42 88.32 88.26 88.19 88.15 88.13 88.05 87.95 87.9 87.83 87.73 87.63 87.54 87.43 87.33 87.24 87.15 87.07 87.03 86.96 86.9 86.83 86.74 86.58 86.52 86.42 86.26 86.1 85.92 85.73 85.51 85.37 85.28 85.11 84.94 84.85 84.91 84.7 84.54 84.63 84.62 84.68 84.61 84.76 84.81 84.84 84.88 85.01 85.23 85.39 85.5 85.62 85.71 85.79 85.87 86.03 86.13 86.27 86.47 86.39 86.58 86.85 87.14 87.4 87.65 87.87 88.11 88.34 88.57 88.85 89.16 89.45 89.72 90.06 90.31 90.54 90.7 90.8 90.93 91.02 91.07 91.12 91.18 91.23 91.25 91.34 91.41 91.44 -9999 -9999 -9999 -9999 -9999 -9999 -9999 -9999 -9999 -9999 -9999 -9999 -9999 -9999 -9999 -9999 -9999 -9999 -9999 -9999 -9999 -9999 -9999 -9999 -9999 -9999 -9999 -9999 -9999 -9999 -9999 -9999 -9999 -9999 -9999 -9999 -9999 -9999 -9999 -9999 -9999 -9999 -9999 -9999 -9999 -9999 -9999 -9999 -9999 -9999 -9999 -9999 -9999 -9999 -9999 -9999 -9999 -9999 -9999 -9999 -9999 -9999 -9999 -9999 -9999 -9999 -9999 -9999 -9999 -9999 -9999 -9999 -9999 -9999 -9999 -9999 -9999 -9999 -9999 -9999 -9999 -9999 -9999 -9999 -9999 -9999 -9999 -9999 -9999 -9999 -9999 -9999 -9999 -9999 -9999 -9999 -9999 -9999 -9999 -9999 -9999 -9999 -9999
-9999 -9999 -9999 -9999 -9999 -9999 -9999 -9999 -9999 -9999 -9999 -9999 -9999 -9999 -9999 -9999 -9999 -9999 -9999 -9999 -9999 -9999 -9999 -9999 -9999 -9999 -9999 -9999 -9999 -9999 -9999 -9999 -9999 -9999 -9999 -9999 -9999 -9999 -9999 -9999 -9999 -9999 -9999 -9999 -9999 -9999 -9999 -9999 -9999 -9999 -9999 -9999 -9999 -9999 -9999 -9999 -9999 -9999 -9999 -9999 -9999 -9999 -9999 -9999 -9999 -9999 -9999 -9999 -9999 -9999 -9999 -9999 -9999 -9999 -9999 -9999 -9999 -9999 -9999 -9999 -9999 -9999 -9999 -9999 -9999 -9999 -9999 -9999 -9999 -9999 102.13 102.13 102.11 102.05 101.95 101.8 101.67 101.53 101.4 101.2 100.95 100.8 100.65 100.48 100.36 100.27 100.12 99.94 99.72 99.47 99.26 99.09 98.83 98.74 98.6 98.51 98.38 98.27 98.11 98.02 97.85 97.69 97.53 97.25 97.18 97.19 97.11 97.01 96.9 96.79 96.63 96.51 96.44 96.16 96.03 95.88 95.72 95.6 95.56 95.5 95.33 95.28 95.06 94.9 94.77 94.65 94.52 94.39 94.27 94.15 94.06 93.96 93.88 93.73 93.64 93.51 93.42 93.34 93.27 93.16 93.05 92.95 92.91 92.83 92.76 92.7 92.57 92.46 92.34 92.24 92.12 92.03 91.97 91.9 91.82 91.67 91.66 91.51 91.36 91.22 91.08 91.03 90.8 90.86 90.8 90.74 90.46 90.35 90.22 90.12 89.98 89.82 90.04 90.03 89.95 89.88 89.83 89.76 89.76 89.59 89.44 89.37 89.33 89.3 89.18 89.14 89.13 88.91 88.79 88.74 88.67 88.5 88.54 88.45 88.4 88.33 88.26 88.19 88.17 88.08 88.02 87.93 87.86 87.79 87.68 87.61 87.5 87.42 87.33 87.25 87.16 87.11 87.02 86.96 86.88 86.79 86.72 86.56 86.49 86.38 86.21 86.06 85.87 85.69 85.49 85.37 85.21 85.06 84.96 85.1 84.86 84.69 84.61 84.71 84.76 84.74 84.73 84.91 84.92 84.97 85.06 85.33 85.44 85.56 85.71 85.75 85.83 85.91 85.93 86.05 86.22 86.36 86.52 86.67 86.89 87.05 87.11 87.46 87.74 88 88.26 88.53 88.72 88.99 89.29 89.56 89.88 90.17 90.4 90.6 90.75 90.86 90.97 91.05 91.14 91.21 91.22 91.27 91.34 91.39 91.49 -9999 -9999 -9999 -9999 -9999 -9999 -9999 -9999 -9999 -9999 -9999 -9999 -9999 -9999 -9999 -9999 -9999 -9999 -9999 -9999 -9999 -9999 -9999 -9999 -9999 -9999 -9999 -9999 -9999 -9999 -9999 -9999 -9999 -9999 -9999 -9999 -9999 -9999 -9999 -9999 -9999 -9999 -9999 -9999 -9999 -9999 -9999 -9999 -9999 -9999 -9999 -9999 -9999 -9999 -9999 -9999 -9999 -9999 -9999 -9999 -9999 -9999 -9999 -9999 -9999 -9999 -9999 -9999 -9999 -9999 -9999 -9999 -9999 -9999 -9999 -9999 -9999 -9999 -9999 -9999 -9999 -9999 -9999 -9999 -9999 -9999 -9999 -9999 -9999 -9999 -9999 -9999 -9999 -9999 -9999 -9999 -9999 -9999 -9999 -9999 -9999 -9999 -9999 -9999
-9999 -9999 -9999 -9999 -9999 -9999 -9999 -9999 -9999 -9999 -9999 -9999 -9999 -9999 -9999 -9999 -9999 -9999 -9999 -9999 -9999 -9999 -9999 -9999 -9999 -9999 -9999 -9999 -9999 -9999 -9999 -9999 -9999 -9999 -9999 -9999 -9999 -9999 -9999 -9999 -9999 -9999 -9999 -9999 -9999 -9999 -9999 -9999 -9999 -9999 -9999 -9999 -9999 -9999 -9999 -9999 -9999 -9999 -9999 -9999 -9999 -9999 -9999 -9999 -9999 -9999 -9999 -9999 -9999 -9999 -9999 -9999 -9999 -9999 -9999 -9999 -9999 -9999 -9999 -9999 -9999 -9999 -9999 -9999 -9999 -9999 -9999 -9999 -9999 -9999 102.14 102.12 102.1 102 101.89 101.75 101.64 101.47 101.34 101.11 100.94 100.77 100.64 100.47 100.34 100.24 100.07 99.89 99.66 99.48 99.22 98.98 98.83 98.67 98.53 98.37 98.25 98.1 97.99 97.84 97.69 97.63 97.46 97.35 97.28 97.25 97.09 96.97 96.8 96.65 96.47 96.34 96.24 96.09 96.06 95.94 95.83 95.685 95.58 95.46 95.32 95.23 95.1 94.91 94.8 94.67 94.52 94.38 94.3 94.17 94.07 94.02 93.89 93.75 93.63 93.52 93.43 93.33 93.27 93.15 93.06 93.01 92.96 92.88 92.81 92.72 92.59 92.47 92.36 92.24 92.2 92.09 92.02 91.9 91.81 91.71 91.68 91.55 91.43 91.28 91.16 91.04 90.89 90.98 90.84 90.68 90.52 90.35 90.26 90.16 90.06 89.96 89.85 89.7 89.91 89.86 89.82 89.68 89.67 89.47 89.45 89.4 89.31 89.32 89.25 89.16 89.14 88.98 88.84 88.74 88.65 88.58 88.54 88.4 88.4 88.29 88.24 88.17 88.12 88.06 87.98 87.91 87.86 87.78 87.68 87.6 87.5 87.4 87.29 87.2 87.12 87.04 86.98 86.93 86.86 86.75 86.68 86.50999 86.46 86.33 86.19 86.01 85.83 85.68 85.44 85.31 85.15 85.05 84.97 85.02 84.86 84.77 84.77 84.88 84.87 84.81 84.97 85.05 85.05 85.15 85.3 85.52 85.68 85.62 85.81 85.92 85.98 86.03 86.12 86.2 86.32 86.47 86.59 86.76 86.98 87.17 87.4 87.66 87.68 87.99 88.3 88.59 88.87 89.12 89.42 89.68 89.99 90.23 90.48 90.64 90.78 90.89 91.01 91.11 91.19 91.25 91.28 91.34 91.39 91.49 91.54 -9999 -9999 -9999 -9999 -9999 -9999 -9999 -9999 -9999 -9999 -9999 -9999 -9999 -9999 -9999 -9999 -9999 -9999 -9999 -9999 -9999 -9999 -9999 -9999 -9999 -9999 -9999 -9999 -9999 -9999 -9999 -9999 -9999 -9999 -9999 -9999 -9999 -9999 -9999 -9999 -9999 -9999 -9999 -9999 -9999 -9999 -9999 -9999 -9999 -9999 -9999 -9999 -9999 -9999 -9999 -9999 -9999 -9999 -9999 -9999 -9999 -9999 -9999 -9999 -9999 -9999 -9999 -9999 -9999 -9999 -9999 -9999 -9999 -9999 -9999 -9999 -9999 -9999 -9999 -9999 -9999 -9999 -9999 -9999 -9999 -9999 -9999 -9999 -9999 -9999 -9999 -9999 -9999 -9999 -9999 -9999 -9999 -9999 -9999 -9999 -9999 -9999 -9999 -9999
-9999 -9999 -9999 -9999 -9999 -9999 -9999 -9999 -9999 -9999 -9999 -9999 -9999 -9999 -9999 -9999 -9999 -9999 -9999 -9999 -9999 -9999 -9999 -9999 -9999 -9999 -9999 -9999 -9999 -9999 -9999 -9999 -9999 -9999 -9999 -9999 -9999 -9999 -9999 -9999 -9999 -9999 -9999 -9999 -9999 -9999 -9999 -9999 -9999 -9999 -9999 -9999 -9999 -9999 -9999 -9999 -9999 -9999 -9999 -9999 -9999 -9999 -9999 -9999 -9999 -9999 -9999 -9999 -9999 -9999 -9999 -9999 -9999 -9999 -9999 -9999 -9999 -9999 -9999 -9999 -9999 -9999 -9999 -9999 -9999 -9999 -9999 -9999 -9999 -9999 102.12 102.11 102.08 102.04 101.84 101.73 101.6 101.46 101.23 101.09 100.91 100.78 100.61 100.45 100.34 100.2 100.02 99.84 99.53 99.23 99 98.77 98.62 98.49 98.35 98.36 98.28 98.1 98.13 98.01 97.86 97.76 97.48 97.31 97.22 97.15 96.95 96.87 96.79 96.66 96.61 96.47 96.34 96.22 96.05 95.95 95.87 95.64 95.58 95.43 95.35 95.14 94.97 94.92 94.78 94.66 94.52 94.41 94.31 94.22 94.07 94 93.89 93.74 93.64 93.55 93.45 93.4 93.3 93.16 93.08 93 92.97 92.91 92.78 92.67 92.59 92.48 92.35 92.26 92.18 92.1 92.02 91.9 91.83 91.77 91.69 91.54 91.43 91.31 91.25 91.04 91.1 91.03 90.93 90.74 90.54 90.45 90.38 90.26 90.09 90.06 89.79 89.83 89.69 89.5 89.62 89.7 89.68 89.55 89.49 89.43 89.38 89.36 89.28 89.15 89.08 89.02 88.95 88.84 88.72 88.61 88.51 88.47 88.39 88.28 88.23 88.1 88.08 88.03 87.94 87.9 87.81 87.74 87.65 87.55 87.44 87.36 87.28 87.19 87.14 87.03 86.98 86.88 86.81 86.7 86.6 86.45 86.4 86.27 86.1 85.95 85.76 85.58 85.43 85.34 85.13 85.09 85.18 85 84.88 84.87 84.88 84.93 84.9 84.95 85.13 85.15 85.18 85.3 85.6 85.71 85.85 85.85 85.95 86.02 86.08 86.14 86.22 86.37 86.42 86.57 86.77 86.89 87.07 87.28 87.52 87.71 87.94 88.23 88.26 88.55 88.86 89.19 89.47 89.8 90.09 90.31 90.51 90.67 90.8 90.94 91.04 91.16 91.22 91.28 91.36 91.38 91.42 91.52 91.51 -9999 -9999 -9999 -9999 -9999 -9999 -9999 -9999 -9999 -9999 -9999 -9999 -9999 -9999 -9999 -9999 -9999 -9999 -9999 -9999 -9999 -9999 -9999 -9999 -9999 -9999 -9999 -9999 -9999 -9999 -9999 -9999 -9999 -9999 -9999 -9999 -9999 -9999 -9999 -9999 -9999 -9999 -9999 -9999 -9999 -9999 -9999 -9999 -9999 -9999 -9999 -9999 -9999 -9999 -9999 -9999 -9999 -9999 -9999 -9999 -9999 -9999 -9999 -9999 -9999 -9999 -9999 -9999 -9999 -9999 -9999 -9999 -9999 -9999 -9999 -9999 -9999 -9999 -9999 -9999 -9999 -9999 -9999 -9999 -9999 -9999 -9999 -9999 -9999 -9999 -9999 -9999 -9999 -9999 -9999 -9999 -9999 -9999 -9999 -9999 -9999 -9999 -9999 -9999
-9999 -9999 -9999 -9999 -9999 -9999 -9999 -9999 -9999 -9999 -9999 -9999 -9999 -9999 -9999 -9999 -9999 -9999 -9999 -9999 -9999 -9999 -9999 -9999 -9999 -9999 -9999 -9999 -9999 -9999 -9999 -9999 -9999 -9999 -9999 -9999 -9999 -9999 -9999 -9999 -9999 -9999 -9999 -9999 -9999 -9999 -9999 -9999 -9999 -9999 -9999 -9999 -9999 -9999 -9999 -9999 -9999 -9999 -9999 -9999 -9999 -9999 -9999 -9999 -9999 -9999 -9999 -9999 -9999 -9999 -9999 -9999 -9999 -9999 -9999 -9999 -9999 -9999 -9999 -9999 -9999 -9999 -9999 -9999 -9999 -9999 -9999 -9999 -9999 102.07 102.09 102.11 102.06 101.91 101.83 101.73 101.57 101.42 101.23 101.06 100.9 100.7 100.53 100.41 100.28 100.1 99.94 99.62 99.51 99.37 99.1 98.88 98.71 98.61 98.52 98.41 98.28 98.21 98.05 97.99 97.8 97.52 97.52 97.33 97.31 97.21 97.11 96.99 96.88 96.76 96.66 96.43 96.24 96.03 95.86 95.78 95.71 95.595 95.56 95.39 95.29 95.08 94.98 94.91 94.8 94.71 94.56 94.46 94.33 94.23 94.16 94.06 93.94 93.77 93.67 93.53 93.51 93.44 93.28 93.24 93.14 93.09 93.02 92.95 92.84 92.73 92.57 92.48 92.35 92.29 92.2 92.08 92.01 91.93 91.86 91.78 91.69 91.56 91.48 91.37 91.28 91.15 91.14 91.09 90.9 90.71 90.58 90.48 90.45 90.34 90.25 90.09 89.94 89.87 89.71 89.68 89.54 89.38 89.31 89.55 89.56 89.43 89.37 89.44 89.32 89.16 89.07 88.97 88.88 88.79 88.77 88.77 88.61 88.49 88.37 88.31 88.2 88.11 88.05 87.95 87.89 87.86 87.79 87.72 87.63 87.53 87.41 87.31 87.21 87.16 87.06 86.99 86.94 86.82 86.74 86.62 86.55 86.385 86.33 86.2 86.05 85.88 85.7 85.53 85.4 85.24 85.11 85.05 85.2 85.04 84.99 84.94 84.98 85 85.02 85.1 85.2 85.2 85.33 85.49 85.72 85.89 85.94 86 86.07 86.17 86.2 86.27 86.36 86.46 86.59 86.72 86.88 87.08 87.26 87.38 87.58 87.84 88.05 88.29 88.52 88.82 89.01 89.18 89.57 89.83 90.11 90.38 90.55 90.71 90.86 90.96 91.08 91.19 91.26 91.28 91.39 91.41 91.47 91.61 -9999 -9999 -9999 -9999 -9999 -9999 -9999 -9999 -9999 -9999 -9999 -9999 -9999 -9999 -9999 -9999 -9999 -9999 -9999 -9999 -9999 -9999 -9999 -9999 -9999 -9999 -9999 -9999 -9999 -9999 -9999 -9999 -9999 -9999 -9999 -9999 -9999 -9999 -9999 -9999 -9999 -9999 -9999 -9999 -9999 -9999 -9999 -9999 -9999 -9999 -9999 -9999 -9999 -9999 -9999 -9999 -9999 -9999 -9999 -9999 -9999 -9999 -9999 -9999 -9999 -9999 -9999 -9999 -9999 -9999 -9999 -9999 -9999 -9999 -9999 -9999 -9999 -9999 -9999 -9999 -9999 -9999 -9999 -9999 -9999 -9999 -9999 -9999 -9999 -9999 -9999 -9999 -9999 -9999 -9999 -9999 -9999 -9999 -9999 -9999 -9999 -9999 -9999 -9999 -9999
-9999 -9999 -9999 -9999 -9999 -9999 -9999 -9999 -9999 -9999 -9999 -9999 -9999 -9999 -9999 -9999 -9999 -9999 -9999 -9999 -9999 -9999 -9999 -9999 -9999 -9999 -9999 -9999 -9999 -9999 -9999 -9999 -9999 -9999 -9999 -9999 -9999 -9999 -9999 -9999 -9999 -9999 -9999 -9999 -9999 -9999 -9999 -9999 -9999 -9999 -9999 -9999 -9999 -9999 -9999 -9999 -9999 -9999 -9999 -9999 -9999 -9999 -9999 -9999 -9999 -9999 -9999 -9999 -9999 -9999 -9999 -9999 -9999 -9999 -9999 -9999 -9999 -9999 -9999 -9999 -9999 -9999 -9999 -9999 -9999 -9999 -9999 -9999 -9999 102.06 102.07 102.07 102 101.92 101.81 101.69 101.57 101.39 101.2 101 100.85 100.58 100.45 100.34 100.15 99.96 99.84 99.72 99.49 99.25 99.09 98.89 98.69 98.53 98.38 98.21 98.16 97.99 97.91 97.81 97.65 97.57 97.52 97.49 97.37 97.2 97.09 96.85 96.74 96.6 96.46 96.29 96.23 96.18 96.02 95.91 95.82 95.565 95.53 95.33 95.29 95.05 95.01 94.88 94.75 94.66 94.58 94.49 94.34 94.25 94.19 94.06 93.93 93.8 93.72 93.61 93.53 93.45 93.33 93.25 93.15 93.11 93.04 92.96 92.82 92.7 92.6 92.49 92.42 92.3 92.2 92.12 92.03 91.9 91.86 91.79 91.7 91.57 91.41 91.38 91.2 91.2 91.24 91.12 90.89 90.71 90.62 90.56 90.47 90.41 90.33 90.25 90.14 89.95 89.87 89.68 89.67 89.54 89.36 89.26 89.13 89.42 89.43 89.29 89.25 89.17 89.01 88.94 88.91 88.87 88.79 88.72 88.68 88.58 88.48 88.36 88.21 88.15 88.04 87.93 87.85 87.79 87.75 87.66 87.54 87.47 87.36 87.24 87.17 87.11 87.01 86.95 86.86 86.75 86.66 86.55 86.49 86.34 86.27 86.12 85.96 85.8 85.65 85.52 85.43 85.18 85.06 85.3 85.14 85.08 85.01 85.07 85.09 85.08 85.05 85.22 85.3 85.35 85.52 85.76 85.89 86.03 86.11 86.17 86.21 86.25 86.34 86.39 86.51 86.59 86.73 86.88 87.06 87.24 87.47 87.64 87.83 88 88.17 88.36 88.6 88.86 89.14 89.41 89.69 89.77 90.1 90.37 90.64 90.79 90.93 91.08 91.11 91.24 91.27 91.33 91.36 91.46 91.55 91.62 -9999 -9999 -9999 -9999 -9999 -9999 -9999 -9999 -9999 -9999 -9999 -9999 -9999 -9999 -9999 -9999 -9999 -9999 -9999 -9999 -9999 -9999 -9999 -9999 -9999 -9999 -9999 -9999 -9999 -9999 -9999 -9999 -9999 -9999 -9999 -9999 -9999 -9999 -9999 -9999 -9999 -9999 -9999 -9999 -9999 -9999 -9999 -9999 -9999 -9999 -9999 -9999 -9999 -9999 -9999 -9999 -9999 -9999 -9999 -9999 -9999 -9999 -9999 -9999 -9999 -9999 -9999 -9999 -9999 -9999 -9999 -9999 -9999 -9999 -9999 -9999 -9999 -9999 -9999 -9999 -9999 -9999 -9999 -9999 -9999 -9999 -9999 -9999 -9999 -9999 -9999 -9999 -9999 -9999 -9999 -9999 -9999 -9999 -9999 -9999 -9999 -9999 -9999 -9999 -9999
-9999 -9999 -9999 -9999 -9999 -9999 -9999 -9999 -9999 -9999 -9999 -9999 -9999 -9999 -9999 -9999 -9999 -9999 -9999 -9999 -9999 -9999 -9999 -9999 -9999 -9999 -9999 -9999 -9999 -9999 -9999 -9999 -9999 -9999 -9999 -9999 -9999 -9999 -9999 -9999 -9999 -9999 -9999 -9999 -9999 -9999 -9999 -9999 -9999 -9999 -9999 -9999 -9999 -9999 -9999 -9999 -9999 -9999 -9999 -9999 -9999 -9999 -9999 -9999 -9999 -9999 -9999 -9999 -9999 -9999 -9999 -9999 -9999 -9999 -9999 -9999 -9999 -9999 -9999 -9999 -9999 -9999 -9999 -9999 -9999 -9999 -9999 -9999 -9999 102.04 102.03 102.05 101.94 101.86 101.8 101.71 101.54 101.37 101.17 100.96 100.8 100.56 100.41 100.23 100.07 99.86 99.79 99.45 99.23 99.05 98.89 98.74 98.62 98.6 98.42 98.28 98.18 98.22 98.05 97.95 97.76 97.59 97.46 97.32 97.19 97.05 97.04 96.92 96.88 96.73 96.6 96.43 96.34 96.17 96.02 95.85 95.79 95.52 95.49 95.29 94.97 95.11 94.96 94.84 94.75 94.67 94.56 94.48 94.39 94.31 94.21 94.07 93.96 93.84 93.74 93.66 93.59 93.46 93.34 93.28 93.23 93.12 93.11 92.96 92.85 92.7 92.59 92.5 92.42 92.31 92.22 92.11 92.03 91.96 91.88 91.79 91.68 91.57 91.47 91.37 91.12 91.24 91.17 91.08 90.86 90.73 90.69 90.6 90.54 90.47 90.33 90.25 90.18 90.08 89.92 89.8 89.66 89.48 89.47 89.35 89.26 89.15 88.98 89.27 89.29 89.17 89.11 88.97 88.82 88.8 88.76 88.72 88.64 88.54 88.46 88.45 88.32 88.2 88.09 87.92 87.85 87.78 87.68 87.61 87.51 87.39 87.26 87.17 87.08 87.02 86.93 86.86 86.77 86.67 86.59 86.48 86.39 86.24 86.17 86.06 85.91 85.74 85.58 85.48 85.33 85.2 85.18 85.29 85.24 85.16 85.11 85.12 85.14 85.2 85.28 85.35 85.39 85.45 85.61 85.86 86.04 86.06 86.21 86.26 86.33 86.38 86.39 86.51 86.62 86.73 86.88 87.03 87.26 87.43 87.62 87.81 88 88.16 88.32 88.51 88.72 88.95 89.17 89.47 89.74 90.02 90.31 90.39 90.57 90.82 91 91.13 91.21 91.34 91.37 91.4 91.42 91.52 91.66 91.66 -9999 -9999 -9999 -9999 -9999 -9999 -9999 -9999 -9999 -9999 -9999 -9999 -9999 -9999 -9999 -9999 -9999 -9999 -9999 -9999 -9999 -9999 -9999 -9999 -9999 -9999 -9999 -9999 -9999 -9999 -9999 -9999 -9999 -9999 -9999 -9999 -9999 -9999 -9999 -9999 -9999 -9999 -9999 -9999 -9999 -9999 -9999 -9999 -9999 -9999 -9999 -9999 -9999 -9999 -9999 -9999 -9999 -9999 -9999 -9999 -9999 -9999 -9999 -9999 -9999 -9999 -9999 -9999 -9999 -9999 -9999 -9999 -9999 -9999 -9999 -9999 -9999 -9999 -9999 -9999 -9999 -9999 -9999 -9999 -9999 -9999 -9999 -9999 -9999 -9999 -9999 -9999 -9999 -9999 -9999 -9999 -9999 -9999 -9999 -9999 -9999 -9999 -9999 -9999 -9999
-9999 -9999 -9999 -9999 -9999 -9999 -9999 -9999 -9999 -9999 -9999 -9999 -9999 -9999 -9999 -9999 -9999 -9999 -9999 -9999 -9999 -9999 -9999 -9999 -9999 -9999 -9999 -9999 -9999 -9999 -9999 -9999 -9999 -9999 -9999 -9999 -9999 -9999 -9999 -9999 -9999 -9999 -9999 -9999 -9999 -9999 -9999 -9999 -9999 -9999 -9999 -9999 -9999 -9999 -9999 -9999 -9999 -9999 -9999 -9999 -9999 -9999 -9999 -9999 -9999 -9999 -9999 -9999 -9999 -9999 -9999 -9999 -9999 -9999 -9999 -9999 -9999 -9999 -9999 -9999 -9999 -9999 -9999 -9999 -9999 -9999 -9999 -9999 102.04 102.01 102.01 101.97 101.89 101.81 101.74 101.66 101.52 101.35 101.15 101 100.78 100.58 100.39 100.21 100 99.88 99.59 99.51 99.35 99.2 99.08 98.93 98.86 98.71 98.54 98.4 98.28 98.14 98.01 97.73 97.68 97.64 97.53 97.47 97.33 97.25 97.11 96.98 96.86 96.76 96.53 96.32 96.12 95.97 95.86 95.82 95.8 95.52 95.51 95.26 95.14 95.08 94.93 94.8 94.73 94.65 94.56 94.48 94.39 94.32 94.22 94.09 93.94 93.85 93.77 93.69 93.62 93.47 93.37 93.31 93.21 93.14 93.05 92.96 92.82 92.73 92.57 92.54 92.46 92.34 92.25 92.15 92.05 91.96 91.85 91.75 91.66 91.52 91.49 91.34 91.34 91.35 91.25 91.02 90.82 90.79 90.64 90.61 90.57 90.45 90.43 90.32 90.18 90.11 90.02 89.88 89.77 89.61 89.47 89.38 89.31 89.2 89.13 88.96 88.78 89.15 89.14 89.06 88.9 88.8 88.7 88.6 88.63 88.55 88.5 88.41 88.33 88.28 88.14 88.01 87.88 87.74 87.67 87.57 87.4 87.35 87.22 87.11 87.02 86.95 86.87 86.77 86.69 86.57 86.5 86.42 86.33 86.17 86.12 86 85.81 85.68 85.53 85.43 85.32 85.16 85.34 85.29 85.23 85.2 85.19 85.19 85.25 85.26 85.41 85.44 85.47 85.61 85.86 85.97 86.14 86.21 86.32 86.39 86.46 86.5 86.57 86.63 86.74 86.89 87.05 87.21 87.39 87.56 87.82 88.03 88.16 88.35 88.48 88.69 88.85 89.04 89.24 89.53 89.83 90.09 90.36 90.59 90.82 90.97 90.9 91.12 91.23 91.37 91.43 91.49 91.53 91.55 91.69 91.67 -9999 -9999 -9999 -9999 -9999 -9999 -9999 -9999 -9999 -9999 -9999 -9999 -9999 -9999 -9999 -9999 -9999 -9999 -9999 -9999 -9999 -9999 -9999 -9999 -9999 -9999 -9999 -9999 -9999 -9999 -9999 -9999 -9999 -9999 -9999 -9999 -9999 -9999 -9999 -9999 -9999 -9999 -9999 -9999 -9999 -9999 -9999 -9999 -9999 -9999 -9999 -9999 -9999 -9999 -9999 -9999 -9999 -9999 -9999 -9999 -9999 -9999 -9999 -9999 -9999 -9999 -9999 -9999 -9999 -9999 -9999 -9999 -9999 -9999 -9999 -9999 -9999 -9999 -9999 -9999 -9999 -9999 -9999 -9999 -9999 -9999 -9999 -9999 -9999 -9999 -9999 -9999 -9999 -9999 -9999 -9999 -9999 -9999 -9999 -9999 -9999 -9999 -9999 -9999 -9999
-9999 -9999 -9999 -9999 -9999 -9999 -9999 -9999 -9999 -9999 -9999 -9999 -9999 -9999 -9999 -9999 -9999 -9999 -9999 -9999 -9999 -9999 -9999 -9999 -9999 -9999 -9999 -9999 -9999 -9999 -9999 -9999 -9999 -9999 -9999 -9999 -9999 -9999 -9999 -9999 -9999 -9999 -9999 -9999 -9999 -9999 -9999 -9999 -9999 -9999 -9999 -9999 -9999 -9999 -9999 -9999 -9999 -9999 -9999 -9999 -9999 -9999 -9999 -9999 -9999 -9999 -9999 -9999 -9999 -9999 -9999 -9999 -9999 -9999 -9999 -9999 -9999 -9999 -9999 -9999 -9999 -9999 -9999 -9999 -9999 -9999 -9999 101.96 101.99 101.99 101.96 101.88 101.84 101.83 101.72 101.63 101.48 101.31 101.14 100.98 100.76 100.54 100.35 100.16 99.99 99.83 99.72 99.52 99.37 99.22 99.05 98.99 98.74 98.61 98.41 98.27 98.15 98 97.84 97.82 97.69 97.67 97.61 97.46 97.29 97.13 96.93 96.82 96.7 96.52 96.38 96.35 96.22 96.1 96.03 95.74 95.71 95.48 95.45 95.24 95.15 95.03 94.91 94.82 94.75 94.62 94.56 94.45 94.42 94.31 94.22 94.09 93.99 93.89 93.8 93.74 93.63 93.52 93.44 93.37 93.25 93.17 93.09 92.93 92.83 92.71 92.63 92.51 92.38 92.32 92.22 92.15 92.03 91.98 91.88 91.76 91.61 91.57 91.44 91.17 91.37 91.32 91.17 90.97 90.87 90.77 90.72 90.67 90.55 90.55 90.41 90.33 90.23 90.13 90.04 89.91 89.79 89.68 89.58 89.47 89.31 89.2 89.1 88.93 88.92 88.79 88.62 89 89 88.95 88.8 88.68 88.56 88.55 88.43 88.36 88.27 88.23 88.16 88.12 87.93 87.77 87.65 87.54 87.4 87.27 87.13 87.07 86.93 86.86 86.76 86.7 86.58 86.47 86.42 86.38 86.27 86.13 86.07 85.95 85.8 85.63 85.55 85.38 85.28 85.29 85.41 85.39 85.32 85.22 85.22 85.27 85.3 85.31 85.51 85.54 85.58 85.74 85.95 86.07 86.19 86.3 86.4 86.49 86.58 86.63 86.71 86.79 86.91 87.04 87.21 87.39 87.56 87.8 87.99 88.16 88.33 88.5 88.67 88.86 89.08 89.29 89.45 89.71 89.97 90.19 90.45 90.66 90.88 91.03 91.18 91.32 91.18 91.35 91.46 91.57 91.61 91.71 91.74 -9999 -9999 -9999 -9999 -9999 -9999 -9999 -9999 -9999 -9999 -9999 -9999 -9999 -9999 -9999 -9999 -9999 -9999 -9999 -9999 -9999 -9999 -9999 -9999 -9999 -9999 -9999 -9999 -9999 -9999 -9999 -9999 -9999 -9999 -9999 -9999 -9999 -9999 -9999 -9999 -9999 -9999 -9999 -9999 -9999 -9999 -9999 -9999 -9999 -9999 -9999 -9999 -9999 -9999 -9999 -9999 -9999 -9999 -9999 -9999 -9999 -9999 -9999 -9999 -9999 -9999 -9999 -9999 -9999 -9999 -9999 -9999 -9999 -9999 -9999 -9999 -9999 -9999 -9999 -9999 -9999 -9999 -9999 -9999 -9999 -9999 -9999 -9999 -9999 -9999 -9999 -9999 -9999 -9999 -9999 -9999 -9999 -9999 -9999 -9999 -9999 -9999 -9999 -9999 -9999 -9999
-9999 -9999 -9999 -9999 -9999 -9999 -9999 -9999 -9999 -9999 -9999 -9999 -9999 -9999 -9999 -9999 -9999 -9999 -9999 -9999 -9999 -9999 -9999 -9999 -9999 -9999 -9999 -9999 -9999 -9999 -9999 -9999 -9999 -9999 -9999 -9999 -9999 -9999 -9999 -9999 -9999 -9999 -9999 -9999 -9999 -9999 -9999 -9999 -9999 -9999 -9999 -9999 -9999 -9999 -9999 -9999 -9999 -9999 -9999 -9999 -9999 -9999 -9999 -9999 -9999 -9999 -9999 -9999 -9999 -9999 -9999 -9999 -9999 -9999 -9999 -9999 -9999 -9999 -9999 -9999 -9999 -9999 -9999 -9999 -9999 -9999 -9999 101.97 101.96 101.91 101.89 101.84 101.8 101.79 101.7 101.56 101.42 101.28 101.13 100.94 100.76 100.55 100.37 100.2 100.11 99.79 99.58 99.39 99.28 99.17 99.07 98.94 98.8 98.72 98.54 98.48 98.34 98.19 97.98 97.79 97.71 97.57 97.41 97.27 97.1 97.05 96.95 96.92 96.76 96.6 96.5 96.41 96.27 96.16 96 95.75 95.72 95.44 95.41 95.23 95.18 95.02 94.91 94.79 94.71 94.58 94.51 94.44 94.39 94.26 94.17 94.07 93.99 93.92 93.82 93.79 93.63 93.56 93.49 93.39 93.25 93.13 93.07 92.93 92.81 92.69 92.59 92.51 92.43 92.31 92.23 92.12 92.06 91.94 91.86 91.73 91.6 91.58 91.41 91.41 91.45 91.33 91.1 90.91 90.82 90.78 90.73 90.68 90.59 90.55 90.47 90.35 90.24 90.16 90.03 89.93 89.81 89.68 89.61 89.5 89.37 89.28 89.17 89.01 88.88 88.63 88.75 88.64 88.48 88.82 88.88 88.84 88.65 88.57 88.38 88.34 88.32 88.24 88.1 88.04 87.96 87.92 87.66 87.53 87.32 87.22 87.12 86.99 86.85 86.78 86.7 86.61 86.5 86.45 86.37 86.32 86.19 86.085 86.02 85.85 85.74 85.62 85.5 85.4 85.3 85.28 85.46 85.44 85.28 85.33 85.24 85.3 85.31 85.56 85.56 85.6 85.71 85.86 86.03 86.18 86.22 86.41 86.47 86.56 86.69 86.74 86.89 86.98 87.12 87.23 87.42 87.64 87.8 87.97 88.19 88.36 88.5 88.67 88.87 89.06 89.24 89.44 89.62 89.91 90.12 90.3 90.55 90.74 90.93 91.09 91.29 91.39 91.5 91.61 91.64 91.52 91.71 91.83 91.91 -9999 -9999 -9999 -9999 -9999 -9999 -9999 -9999 -9999 -9999 -9999 -9999 -9999 -9999 -9999 -9999 -9999 -9999 -9999 -9999 -9999 -9999 -9999 -9999 -9999 -9999 -9999 -9999 -9999 -9999 -9999 -9999 -9999 -9999 -9999 -9999 -9999 -9999 -9999 -9999 -9999 -9999 -9999 -9999 -9999 -9999 -9999 -9999 -9999 -9999 -9999 -9999 -9999 -9999 -9999 -9999 -9999 -9999 -9999 -9999 -9999 -9999 -9999 -9999 -9999 -9999 -9999 -9999 -9999 -9999 -9999 -9999 -9999 -9999 -9999 -9999 -9999 -9999 -9999 -9999 -9999 -9999 -9999 -9999 -9999 -9999 -9999 -9999 -9999 -9999 -9999 -9999 -9999 -9999 -9999 -9999 -9999 -9999 -9999 -9999 -9999 -9999 -9999 -9999 -9999 -9999
-9999 -9999 -9999 -9999 -9999 -9999 -9999 -9999 -9999 -9999 -9999 -9999 -9999 -9999 -9999 -9999 -9999 -9999 -9999 -9999 -9999 -9999 -9999 -9999 -9999 -9999 -9999 -9999 -9999 -9999 -9999 -9999 -9999 -9999 -9999 -9999 -9999 -9999 -9999 -9999 -9999 -9999 -9999 -9999 -9999 -9999 -9999 -9999 -9999 -9999 -9999 -9999 -9999 -9999 -9999 -9999 -9999 -9999 -9999 -9999 -9999 -9999 -9999 -9999 -9999 -9999 -9999 -9999 -9999 -9999 -9999 -9999 -9999 -9999 -9999 -9999 -9999 -9999 -9999 -9999 -9999 -9999 -9999 -9999 -9999 -9999 -9999 101.96 101.93 101.92 101.82 101.8 101.8 101.76 101.63 101.55 101.4 101.26 101.15 100.91 100.77 100.54 100.36 100.27 100.1 99.89 99.8 99.59 99.47 99.34 99.21 99.13 99 98.83 98.64 98.47 98.2 98.04 97.8 97.78 97.7 97.61 97.53 97.37 97.27 97.13 96.97 96.88 96.71 96.61 96.4 96.2 96.12 96.03 95.97 95.82 95.7 95.4 95.36 95.24 95.11 94.97 94.9 94.78 94.69 94.61 94.51 94.46 94.37 94.26 94.15 94.05 93.95 93.93 93.82 93.75 93.65 93.6 93.49 93.4 93.31 93.19 93.01 92.9 92.79 92.7 92.58 92.47 92.39 92.28 92.19 92.11 92.07 91.95 91.79 91.69 91.62 91.53 91.15 91.42 91.43 91.25 91.06 90.88 90.86 90.8 90.69 90.69 90.63 90.54 90.43 90.41 90.26 90.12 90.01 89.9 89.79 89.69 89.59 89.49 89.42 89.31 89.19 89.09 88.94 88.86 88.78 88.54 88.6 88.46 88.3 88.53 88.74 88.74 88.57 88.44 88.26 88.18 88.18 88.03 87.95 87.85 87.76 87.58 87.35 87.24 87.04 86.94 86.85 86.75 86.58 86.54 86.42 86.38 86.34 86.25 86.17 86.03 85.97 85.85 85.72 85.58 85.47 85.4 85.31001 85.46 85.34 85.43 85.43 85.39 85.34 85.46 85.46 85.63 85.67 85.71 85.79 86.03 86.1 86.23 86.28 86.39 86.46 86.65 86.76 86.85 87.01 87.12 87.29 87.46 87.63 87.8 88 88.17 88.36 88.51 88.69 88.88 89.06 89.28 89.46 89.66 89.83 90.05 90.22 90.45 90.66 90.88 91.02 91.19 91.34 91.46 91.55 91.65 91.69 91.76 91.81 91.75 91.82 91.93 -9999 -9999 -9999 -9999 -9999 -9999 -9999 -9999 -9999 -9999 -9999 -9999 -9999 -9999 -9999 -9999 -9999 -9999 -9999 -9999 -9999 -9999 -9999 -9999 -9999 -9999 -9999 -9999 -9999 -9999 -9999 -9999 -9999 -9999 -9999 -9999 -9999 -9999 -9999 -9999 -9999 -9999 -9999 -9999 -9999 -9999 -9999 -9999 -9999 -9999 -9999 -9999 -9999 -9999 -9999 -9999 -9999 -9999 -9999 -9999 -9999 -9999 -9999 -9999 -9999 -9999 -9999 -9999 -9999 -9999 -9999 -9999 -9999 -9999 -9999 -9999 -9999 -9999 -9999 -9999 -9999 -9999 -9999 -9999 -9999 -9999 -9999 -9999 -9999 -9999 -9999 -9999 -9999 -9999 -9999 -9999 -9999 -9999 -9999 -9999 -9999 -9999 -9999 -9999 -9999
-9999 -9999 -9999 -9999 -9999 -9999 -9999 -9999 -9999 -9999 -9999 -9999 -9999 -9999 -9999 -9999 -9999 -9999 -9999 -9999 -9999 -9999 -9999 -9999 -9999 -9999 -9999 -9999 -9999 -9999 -9999 -9999 -9999 -9999 -9999 -9999 -9999 -9999 -9999 -9999 -9999 -9999 -9999 -9999 -9999 -9999 -9999 -9999 -9999 -9999 -9999 -9999 -9999 -9999 -9999 -9999 -9999 -9999 -9999 -9999 -9999 -9999 -9999 -9999 -9999 -9999 -9999 -9999 -9999 -9999 -9999 -9999 -9999 -9999 -9999 -9999 -9999 -9999 -9999 -9999 -9999 -9999 -9999 -9999 -9999 -9999 101.99 102 101.98 101.86 101.82 101.8 101.74 101.69 101.62 101.51 101.39 101.26 101.12 100.89 100.78 100.54 100.38 100.25 100.16 100.08 99.8 99.72 99.56 99.34 99.23 99.12 98.92 98.69 98.49 98.3 98.21 98 97.93 97.84 97.82 97.64 97.48 97.35 97.12 96.96 96.8 96.71 96.59 96.44 96.47 96.33 96.28 96.02 95.95 95.75 95.68 95.41499 95.34 95.29 95.12 95.04 94.87 94.76 94.66 94.55 94.49 94.44 94.3 94.2 94.08 94.03 93.96 93.88 93.8 93.72 93.64 93.55 93.46 93.36 93.31 93.16 93.01 92.88 92.78 92.68 92.6 92.47 92.34 92.28 92.2 92.07 92.01 91.89 91.8 91.66 91.66 91.47 91.51 91.48 91.37 91.22 91.03 90.93 90.86 90.76 90.79 90.69 90.62 90.54 90.48 90.37 90.24 90.18 90.04 89.88 89.81 89.68 89.63 89.48 89.39 89.27 89.24 89.13 89.05 88.9 88.82 88.74 88.59 88.4 88.44 88.32 88.15 88.22 88.61 88.58 88.43 88.32 88.02 88.06 87.95 87.86 87.74 87.57 87.39 87.25 87.06 86.93 86.77 86.7 86.62 86.46 86.37 86.35 86.31 86.24 86.13 85.97 85.9 85.79 85.69 85.57 85.48 85.39 85.32 85.33 86.36 85.6 85.54 85.53 85.54 85.49 85.72 85.72 85.75 85.81 85.92 86.06 86.21 86.23 86.35 86.45 86.57 86.68 86.84 86.99 87.13 87.3 87.47 87.67 87.87 88.06 88.23 88.39 88.53 88.72 88.93 89.07 89.21 89.44 89.69 89.89 90.08 90.24 90.47 90.56 90.78 90.96 91.16 91.31 91.43 91.57 91.67 91.72 91.77 91.81 91.86 91.85 91.83 92.01 -9999 -9999 -9999 -9999 -9999 -9999 -9999 -9999 -9999 -9999 -9999 -9999 -9999 -9999 -9999 -9999 -9999 -9999 -9999 -9999 -9999 -9999 -9999 -9999 -9999 -9999 -9999 -9999 -9999 -9999 -9999 -9999 -9999 -9999 -9999 -9999 -9999 -9999 -9999 -9999 -9999 -9999 -9999 -9999 -9999 -9999 -9999 -9999 -9999 -9999 -9999 -9999 -9999 -9999 -9999 -9999 -9999 -9999 -9999 -9999 -9999 -9999 -9999 -9999 -9999 -9999 -9999 -9999 -9999 -9999 -9999 -9999 -9999 -9999 -9999 -9999 -9999 -9999 -9999 -9999 -9999 -9999 -9999 -9999 -9999 -9999 -9999 -9999 -9999 -9999 -9999 -9999 -9999 -9999 -9999 -9999 -9999 -9999 -9999 -9999 -9999 -9999 -9999 -9999 -9999
